ply
format ascii 1.0
element vertex 729
property float x
property float y
property float z
property float nx
property float ny
property float nz
property uchar diffuse_red
property uchar diffuse_green
property uchar diffuse_blue
end_header
0.074916 1.20054 1.7396 -0.393721 -0.170288 -0.903319 89 97 120
0.0823729 1.20136 1.73756 -0.457423 -0.0230404 -0.88895 57 64 86
0.0971495 1.22075 1.76722 -0.35327 -0.281391 -0.892199 93 100 122
0.104501 1.22293 1.76754 -0.45908 -0.827405 -0.32349 84 89 109
0.134654 1.20658 1.74239 0.414256 -0.898111 -0.147611 41 46 66
0.144283 1.20177 1.74103 -0.0500486 -0.906511 -0.419204 65 71 88
0.152555 1.20191 1.73477 -0.00341387 -0.999948 -0.00960093 64 67 85
0.169668 1.20136 1.73697 0.0900291 -0.976238 -0.197113 76 76 93
0.184264 1.20023 1.7331 -0.191202 -0.973891 -0.122385 46 47 63
0.219098 1.19634 1.726 0.148509 -0.987837 0.0460733 121 117 132
0.230152 1.19648 1.73367 0.0540332 -0.998539 -0.00106901 65 64 81
0.251407 1.19642 1.72669 1.53741e-05 -1 -0.0001267 101 104 123
0.252021 1.19636 1.72665 0.00484506 -0.999916 -0.0120535 101 103 122
0.260381 1.18677 1.71883 -0.186955 -0.980955 -0.0526814 86 93 113
0.265434 1.18991 1.72291 -0.10493 -0.854753 -0.508318 59 65 87
0.272056 1.19024 1.71981 0.591825 -0.789998 -0.160148 40 47 70
0.28224 1.18282 1.71384 -0.651965 -0.374792 -0.659146 51 62 86
0.287682 1.17893 1.70465 -0.624063 -0.241462 -0.74313 68 82 107
0.293072 1.17591 1.7007 -0.376766 -0.909572 -0.175291 127 144 166
0.317403 1.17952 1.70319 0.712686 -0.608096 -0.34971 171 189 210
0.331728 1.18244 1.70906 0.14063 -0.944432 -0.297106 180 190 206
0.347764 1.17648 1.69745 0.667874 -0.691909 -0.274238 201 209 226
0.36776 1.18724 1.7131 -7.99783e-05 -0.852833 -0.522184 164 171 182
0.374425 1.18518 1.71618 0.0247278 -0.862703 -0.505106 160 164 174
0.380376 1.1858 1.71209 -0.485069 -0.841286 -0.238633 144 150 159
0.392023 1.18242 1.70925 -0.429917 -0.584368 -0.688249 172 176 189
0.421472 1.17874 1.70812 -0.143748 -0.98452 -0.100281 75 80 92
0.441757 1.15741 1.6739 -0.49563 0.0990632 -0.862866 39 45 56
0.445562 1.15537 1.67112 -0.525106 0.0651259 -0.848541 45 50 61
0.455201 1.15193 1.66919 0.324618 -0.0537994 -0.944314 120 122 134
0.466087 1.15643 1.67295 0.151921 0.300717 -0.941536 99 102 113
0.509921 1.17383 1.70022 -0.332369 -0.891448 -0.30798 205 213 230
0.517048 1.17335 1.69608 -0.00355572 -0.999954 -0.00895387 198 210 227
0.524923 1.18377 1.71485 -0.108262 -0.96392 -0.243184 202 213 234
0.531999 1.18524 1.71147 -0.0120487 -0.984733 -0.173654 184 197 219
0.54956 1.18338 1.71116 -0.557768 0.0660025 -0.827368 29 44 68
0.548922 1.18475 1.71275 -0.706439 -0.574493 -0.413402 28 43 67
0.557679 1.1797 1.70269 -0.587571 -0.305356 -0.749345 40 55 80
0.570901 1.17663 1.70304 -0.600609 -0.608388 -0.51878 57 72 97
0.575874 1.17593 1.69663 -0.445492 -0.205962 -0.871273 77 92 117
0.626183 1.16754 1.6888 -0.289158 -0.707929 -0.644379 145 151 172
0.640332 1.16903 1.69213 0.525514 -0.605375 -0.597792 154 159 176
0.647402 1.16959 1.69493 0.201119 -0.715558 -0.668976 83 93 115
0.655178 1.16972 1.69227 -0.199521 -0.978365 -0.0547143 50 62 82
0.664999 1.17036 1.68997 -3.7129e-05 -1 -6.90462e-05 83 94 111
0.685007 1.16808 1.69106 -0.436382 -0.822559 -0.364648 205 205 218
0.69257 1.16905 1.68659 -0.0648903 -0.935211 -0.348094 149 146 161
0.700169 1.16741 1.69132 -0.127388 -0.890825 -0.436122 179 179 190
0.700336 1.16772 1.69182 -0.0359548 -0.849843 -0.525807 179 179 191
0.706337 1.16695 1.6851 -0.396121 -0.916623 -0.0537582 190 192 206
0.714744 1.16345 1.67932 0.317482 -0.939055 -0.131839 200 202 218
0.728325 1.16259 1.67865 4.54399e-06 -1 -1.67556e-05 144 151 171
0.747807 1.17019 1.69582 -0.424539 0.275603 -0.862444 113 119 137
0.754465 1.15039 1.66018 -0.167039 0.362427 -0.916921 146 150 168
0.774349 1.15546 1.66916 -0.678297 -0.7006 -0.221522 88 97 113
0.779084 1.15214 1.66944 -5.24156e-05 -1 -0.000167544 68 78 96
0.814693 1.16554 1.68407 0.404593 -0.882537 -0.239651 114 136 161
0.827498 1.16429 1.67994 0.595438 -0.544249 -0.590971 113 128 153
0.840284 1.16746 1.69068 0.566273 -0.200581 -0.799438 197 211 234
0.848048 1.16867 1.69241 0.508177 -0.0786512 -0.857654 211 222 243
0.854156 1.17191 1.69505 0.552517 -0.202178 -0.80861 201 210 232
0.859211 1.17377 1.69804 0.501597 -0.0725968 -0.86205 145 154 177
0.869219 1.17818 1.70075 -0.0548456 0.297933 -0.95301 164 171 192
0.866348 1.16188 1.67851 -0.751683 -0.610864 -0.248633 119 128 148
0.871294 1.16476 1.68069 0.0765636 -0.770197 -0.633194 147 153 172
0.878108 1.16283 1.67979 -0.73757 -0.636995 -0.224117 77 84 104
0.895697 1.16309 1.68578 -0.716502 -0.670434 -0.192724 47 58 81
0.897382 1.16086 1.6811 -0.414491 -0.892155 -0.1796 49 62 84
0.901098 1.15903 1.67419 -0.683807 -0.69041 -0.236098 60 73 96
0.907985 1.16177 1.67845 -0.00348087 -0.999955 -0.00881085 93 106 129
0.92318 1.15605 1.67029 -0.433984 -0.900875 -0.00909321 197 205 225
0.936245 1.15112 1.66706 0.525707 -0.702577 -0.479602 185 191 211
0.0469464 1.21654 1.75318 0.776382 -0.590719 -0.219731 160 167 190
0.0595326 1.22557 1.76609 -0.424824 -0.383896 -0.819847 85 91 115
0.0714268 1.22148 1.7593 -0.584229 -0.344938 -0.734639 55 61 85
0.0781319 1.21842 1.75119 -0.359838 -0.24656 -0.899847 47 50 74
0.0788452 1.21832 1.75256 -0.450722 -0.010998 -0.892597 47 51 74
0.0927085 1.22494 1.76371 -0.230726 -0.942675 -0.241102 59 64 85
0.100201 1.22912 1.76689 -0.56487 -0.22238 -0.79465 54 56 77
0.126927 1.20561 1.73832 1.6765e-05 -1 -5.73404e-06 56 62 81
0.162319 1.20025 1.72367 -0.477291 -0.816881 -0.323881 66 69 86
0.17718 1.20215 1.73109 0.102498 -0.980045 -0.170314 37 39 55
0.189237 1.20146 1.72888 -0.497641 -0.800486 -0.334028 49 50 66
0.205324 1.19537 1.72129 -0.00160782 -0.999929 -0.0118365 56 56 72
0.241157 1.19735 1.72197 0.00195162 -0.999953 -0.00947339 97 95 114
0.261687 1.19332 1.71624 -0.000261242 -1 -0.00010037 68 72 93
0.270282 1.19196 1.71693 -3.05974e-06 -1 -6.67984e-06 43 50 72
0.283058 1.1837 1.70133 -0.451274 -0.858999 -0.24181 128 140 163
0.289641 1.17838 1.6968 -0.34802 -0.925089 -0.151959 159 174 198
0.298211 1.17469 1.69345 -0.452263 -0.620571 -0.640586 202 220 236
0.305121 1.17511 1.69218 -0.252538 -0.326658 -0.91078 152 173 200
0.310988 1.18021 1.69721 0.778358 -0.29074 -0.556443 222 237 248
0.324623 1.18307 1.70316 -0.161085 -0.864869 -0.47545 76 92 112
0.33852 1.18128 1.69989 0.103172 -0.911927 -0.39717 191 201 217
0.353213 1.18607 1.70564 0.47473 -0.873191 -0.11031 194 201 217
0.360908 1.1885 1.70877 0.0132846 -0.950625 -0.310057 132 141 157
0.37438 1.18896 1.70924 0.0356113 -0.856709 -0.514569 141 146 162
0.388167 1.18576 1.7101 -0.567084 -0.460512 -0.682894 162 166 178
0.397343 1.1826 1.70371 -0.685878 -0.338014 -0.644451 175 182 196
0.398772 1.18426 1.70054 -0.67815 -0.285089 -0.677375 168 174 190
0.406918 1.18217 1.70334 0.177593 -0.785365 -0.593012 180 189 203
0.413078 1.18513 1.70172 0.271026 -0.664481 -0.696427 173 180 196
0.439114 1.16777 1.68031 -0.426837 0.167572 -0.888668 32 37 54
0.44936 1.15658 1.66813 -0.494478 0.101942 -0.863192 38 45 57
0.460566 1.16524 1.67636 -0.156586 0.352978 -0.922435 51 57 68
0.459492 1.15935 1.66947 0.579448 0.0430722 -0.81387 51 56 68
0.495566 1.18173 1.70393 -6.41157e-05 -1 -0.000140646 168 174 188
0.501097 1.17682 1.69385 -0.31315 -0.947489 -0.0648289 193 200 214
0.508814 1.1791 1.69428 -0.607122 -0.695812 -0.38373 184 192 208
0.516317 1.1666 1.67785 -0.0626148 -0.983133 -0.171841 184 194 212
0.542457 1.18893 1.7119 -0.120821 -0.990577 -0.0645014 64 81 106
0.564386 1.1816 1.70103 -0.553569 -0.446724 -0.702851 118 136 163
0.582549 1.17394 1.69069 -0.449198 -0.879419 -0.15762 83 98 122
0.592747 1.17675 1.69363 -0.499084 -0.849817 -0.169485 73 87 109
0.59387 1.17648 1.68944 -0.0841042 -0.867246 -0.490725 65 78 101
0.600799 1.17432 1.69298 0.247613 -0.96354 -0.101387 95 107 130
0.618894 1.16873 1.68369 0.342876 -0.458989 -0.819613 97 107 129
0.626172 1.17234 1.68348 -0.434015 -0.748491 -0.50139 140 147 170
0.632712 1.16972 1.68652 -0.0840692 -0.827169 -0.555629 156 161 182
0.636454 1.17215 1.68558 0.221455 -0.95358 -0.204065 93 101 123
0.645713 1.17195 1.6868 -0.338671 -0.923401 -0.180645 69 83 106
0.653888 1.17104 1.68297 -0.220666 -0.96146 -0.164016 59 75 95
0.674502 1.17221 1.68788 -0.138393 -0.970423 -0.197806 110 117 134
0.684472 1.17022 1.68142 -0.164911 -0.986262 -0.0095358 110 111 126
0.699646 1.17012 1.68265 -0.00528683 -0.987599 -0.156908 182 182 195
0.719616 1.16201 1.67114 -0.0764951 -0.843827 -0.531135 116 124 143
0.732738 1.15965 1.67132 -0.24651 -0.968953 -0.0190501 194 197 215
0.741156 1.15839 1.66645 -0.562678 -0.615235 -0.552159 145 150 168
0.748486 1.15631 1.66046 -0.589624 -0.384336 -0.710373 208 212 231
0.75029 1.15646 1.66054 -0.561511 -0.417233 -0.714579 209 212 231
0.767867 1.16236 1.67048 -0.636271 -0.749381 -0.183268 116 123 141
0.777004 1.15272 1.66083 -0.473071 -0.794844 -0.380035 75 87 106
0.789402 1.14493 1.65131 -0.637332 -0.681186 -0.360268 154 174 196
0.79266 1.14609 1.64979 0.350074 -0.917446 -0.189054 181 200 223
0.79396 1.14889 1.65615 0.329742 -0.928576 -0.17034 161 181 203
0.79396 1.14889 1.65615 0.329742 -0.928576 -0.17034 161 181 203
0.838739 1.16654 1.68169 -0.0364165 -0.999336 -0.000868948 201 210 233
0.859527 1.1684 1.67862 -0.674303 -0.718715 -0.169602 204 213 235
0.874021 1.16184 1.66915 -0.447385 -0.893968 -0.0258332 168 182 204
0.875996 1.16673 1.68147 -0.743353 -0.627628 -0.23132 153 160 180
0.886853 1.16136 1.67322 -0.157226 -0.979746 -0.124009 62 75 97
0.885278 1.16149 1.66892 -0.454173 -0.890554 -0.0253282 105 121 145
0.896047 1.16295 1.67428 -0.000733155 -0.999998 -0.0016085 155 167 192
0.897255 1.16205 1.67025 -0.186586 -0.974561 -0.124166 152 166 191
0.906441 1.15833 1.66838 -0.42881 -0.903338 -0.0101261 114 126 150
0.916789 1.15896 1.66903 -0.0396273 -0.991969 -0.120113 114 127 150
0.928419 1.15339 1.65879 0.000728789 -0.999999 -0.00152966 192 200 221
0.0549832 1.23518 1.77058 -0.460662 -0.0356499 -0.88686 77 85 108
0.0654098 1.22529 1.75821 -0.583642 -0.354443 -0.730569 41 47 71
0.123961 1.20426 1.72292 0.667059 -0.729967 -0.148932 53 57 76
0.127048 1.20975 1.73019 0.70334 -0.687025 -0.182507 51 56 75
0.126882 1.21033 1.73185 0.763514 -0.594867 -0.251355 51 56 74
0.143905 1.20054 1.72318 0.391102 -0.92033 -0.00573455 49 55 74
0.166378 1.18719 1.69912 -0.460205 -0.833578 -0.305546 59 61 79
0.185591 1.20237 1.72413 7.65332e-05 -1 -0.000104658 42 43 59
0.196047 1.20213 1.72488 -0.0947529 -0.939379 -0.329528 49 48 65
0.205441 1.19796 1.71279 -0.00337567 -0.999954 -0.00895517 38 37 55
0.213731 1.19662 1.71613 0.0780811 -0.979601 -0.185165 39 34 53
0.230067 1.19721 1.7158 0.0393808 -0.999224 -0.00111676 64 61 79
0.251484 1.1969 1.71518 0.0642557 -0.927654 -0.367872 97 98 119
0.260693 1.19486 1.71485 -0.0124772 -0.999663 -0.0227806 74 78 99
0.269842 1.19181 1.71093 -3.77947e-05 -1 -3.43871e-05 48 55 78
0.277986 1.19004 1.70514 -0.2687 -0.948102 -0.17001 127 136 158
0.288985 1.17753 1.68345 0.000107747 -1 -0.000288404 221 234 245
0.297246 1.1766 1.68767 0.0494689 -0.980887 -0.188184 237 249 254
0.318195 1.18614 1.70077 -0.459427 -0.8459 -0.270887 158 176 199
0.324466 1.18617 1.69567 0.0432003 -0.954276 -0.29579 142 158 180
0.331128 1.18397 1.6993 -0.0832208 -0.944152 -0.318829 150 161 179
0.345181 1.18182 1.69376 0.29726 -0.721001 -0.625935 195 204 223
0.358827 1.18923 1.70494 0.643276 -0.720011 -0.260346 166 172 191
0.367454 1.19139 1.70579 -0.145139 -0.798514 -0.584217 113 123 143
0.3807 1.18933 1.70466 0.216346 -0.885407 -0.411398 79 88 106
0.388374 1.19086 1.70448 0.143229 -0.668861 -0.729459 119 127 143
0.407185 1.1885 1.70031 -0.316522 -0.577184 -0.752777 125 133 149
0.41942 1.18888 1.69993 -0.253503 -0.443084 -0.859891 73 81 98
0.487449 1.18301 1.69681 -0.267156 -0.932873 -0.24161 96 100 113
0.494377 1.18141 1.69151 -0.361928 -0.892644 -0.268693 182 188 201
0.500176 1.1787 1.68492 -0.668281 -0.63732 -0.383697 186 192 207
0.500593 1.17814 1.68382 -0.590627 -0.758065 -0.276583 185 191 206
0.508916 1.16737 1.67177 -0.610959 -0.724877 -0.31825 171 181 198
0.532943 1.18919 1.70458 0.64327 -0.676248 -0.359015 119 133 158
0.548403 1.18954 1.70538 -0.584836 -0.774042 -0.242539 90 106 132
0.553536 1.18514 1.70078 -0.398719 -0.911864 -0.0976035 64 78 103
0.557188 1.18351 1.69382 0.537594 -0.806811 -0.24505 65 80 104
0.570086 1.18132 1.69615 -0.655004 -0.653387 -0.379546 79 95 121
0.574714 1.1797 1.68856 -0.308509 -0.950339 -0.0409698 43 59 84
0.585461 1.18056 1.68815 -0.0809616 -0.995349 -0.0522067 41 55 79
0.602504 1.1733 1.68337 -0.326695 -0.919466 -0.218753 100 113 136
0.607316 1.17266 1.68013 -0.360194 -0.919146 -0.159474 99 112 134
0.632463 1.17287 1.67991 -0.114258 -0.980125 -0.162171 84 97 118
0.636504 1.17269 1.67849 -0.00363438 -0.999954 -0.00890926 134 150 175
0.643145 1.1735 1.6849 0.188303 -0.967375 -0.169493 136 151 176
0.645671 1.17368 1.67743 -0.212355 -0.900259 -0.380052 161 177 201
0.661752 1.16951 1.67837 -1.0414e-05 -1 -3.67294e-06 125 137 153
0.674442 1.17222 1.67582 -0.000914228 -1 -0.000209898 129 124 134
0.692396 1.17183 1.67789 0.0135629 -0.967558 -0.252285 98 98 115
0.706065 1.16712 1.67375 -0.49962 -0.748535 -0.435976 191 191 205
0.71159 1.16568 1.668 -0.267147 -0.830979 -0.487961 167 170 187
0.725498 1.16188 1.6666 -0.445159 -0.738022 -0.507106 92 96 115
0.725959 1.16163 1.66627 -0.365314 -0.806902 -0.464172 95 99 118
0.733399 1.16 1.66261 -0.0147236 -0.984134 -0.176812 176 180 197
0.733326 1.16044 1.66272 -0.0281754 -0.95871 -0.282986 171 175 193
0.755676 1.15671 1.65468 -0.585401 -0.777161 -0.230925 198 204 224
0.770807 1.15757 1.65817 -0.742593 -0.557305 -0.371439 132 145 166
0.784014 1.15226 1.65438 0.304363 -0.887283 -0.346542 191 206 226
0.79248 1.1559 1.65411 -0.646222 -0.725247 -0.237515 179 196 215
0.797437 1.15075 1.64887 -0.654736 -0.732911 -0.184828 197 212 233
0.799154 1.15071 1.64525 -0.628507 -0.760972 -0.160933 193 210 230
0.809484 1.14413 1.64162 -0.813952 -0.350618 -0.463194 139 156 179
0.835685 1.16229 1.66264 -0.0635409 -0.997979 -9.4807e-06 198 204 226
0.86222 1.1639 1.6673 -0.672798 -0.720867 -0.166417 181 193 216
0.864869 1.16147 1.66186 -0.0138244 -0.997209 -0.0733644 195 207 232
0.873285 1.16134 1.66403 -0.382542 -0.923938 -7.27194e-05 199 213 238
0.884605 1.15973 1.65827 -0.398061 -0.917305 -0.00989545 174 189 217
0.884289 1.16015 1.66192 -0.000205685 -1 -0.000472338 154 170 198
0.904471 1.15858 1.66116 -0.00353431 -0.999955 -0.00885584 111 123 148
0.913603 1.15921 1.66314 -0.0035875 -0.999952 -0.00906524 143 154 178
0.922366 1.15514 1.6576 -0.426548 -0.904408 -0.0101401 186 194 216
0.932842 1.15331 1.65519 -6.31646e-05 -1 -2.25558e-05 166 173 194
0.0611876 1.23484 1.76174 -0.5151 -0.136269 -0.846229 46 52 75
0.0678832 1.23307 1.75505 -0.581195 -0.378873 -0.720186 49 53 76
0.0737932 1.22561 1.75099 -0.578843 -0.3184 -0.750708 49 55 77
0.105531 1.20438 1.71377 0.63275 -0.766143 -0.112484 53 57 77
0.111387 1.20139 1.71639 0.68317 -0.713356 -0.156213 62 66 86
0.117131 1.20019 1.71389 0.576159 -0.813289 -0.0812547 57 60 79
0.143749 1.19935 1.70904 0.180665 -0.98351 -0.00819921 83 92 110
0.153615 1.19663 1.70865 -0.373749 -0.901685 -0.217432 73 80 96
0.15994 1.19163 1.69816 -0.543882 -0.674676 -0.499004 85 95 110
0.213823 1.20183 1.71116 -0.543275 -0.747994 -0.381258 49 47 63
0.220207 1.20069 1.71525 0.166835 -0.760665 -0.627339 46 44 61
0.233219 1.2 1.70778 -0.191379 -0.96838 -0.160046 42 39 58
0.24085 1.19822 1.71113 0.0169021 -0.963756 -0.266248 87 85 104
0.249029 1.20152 1.70966 -0.0883862 -0.604087 -0.792002 50 51 71
0.254083 1.19986 1.71331 -0.367159 -0.863926 -0.344713 70 73 93
0.261832 1.19623 1.70414 -0.379278 -0.800051 -0.46483 51 56 77
0.26974 1.19288 1.70058 -0.250307 -0.956413 -0.150398 59 66 89
0.283107 1.18641 1.69274 -0.493501 -0.822256 -0.283466 181 195 219
0.297692 1.1814 1.68195 0.206577 -0.918489 -0.337199 231 245 253
0.304081 1.17725 1.68075 -0.348811 -0.92585 -0.145373 237 250 255
0.318341 1.18587 1.69109 0.679632 -0.679134 -0.277268 175 191 214
0.331926 1.1866 1.68983 0.4973 -0.828704 -0.256792 188 202 225
0.338721 1.18532 1.69324 0.18841 -0.871432 -0.452889 184 195 216
0.351997 1.18711 1.69386 0.595604 -0.751204 -0.284514 95 104 122
0.352698 1.18817 1.6918 0.43535 -0.776156 -0.456127 77 86 105
0.360446 1.19073 1.70025 0.658096 -0.70447 -0.265765 141 150 171
0.374641 1.19445 1.69925 -0.00318757 -0.999956 -0.00885638 112 123 146
0.394937 1.19132 1.70161 -0.529923 -0.343097 -0.775542 103 111 127
0.40121 1.19159 1.6985 -0.42841 -0.496136 -0.755192 36 45 64
0.412322 1.18836 1.69415 -0.225913 -0.9664 -0.122612 46 53 72
0.424994 1.18579 1.69355 -0.594557 -0.201747 -0.778331 34 42 60
0.434316 1.19173 1.7006 -0.522366 0.0638193 -0.85033 28 35 54
0.436534 1.1894 1.69942 -0.505431 0.0854139 -0.858629 27 35 53
0.454983 1.17919 1.68333 0.0341272 0.400661 -0.91559 39 44 59
0.460639 1.16731 1.66504 0.489509 -0.857067 -0.160677 46 51 64
0.480841 1.18831 1.69608 -0.323944 -0.943322 -0.0721321 57 59 69
0.488331 1.18508 1.68932 -0.497434 -0.846309 -0.19058 152 155 168
0.49931 1.17953 1.68409 -0.655548 -0.662418 -0.362573 185 191 206
0.503489 1.17378 1.67275 -0.689316 -0.587414 -0.424014 165 172 189
0.503919 1.17368 1.6716 -0.705008 -0.536076 -0.464313 161 168 185
0.504709 1.17311 1.66964 -0.681472 -0.519114 -0.515865 147 154 171
0.517929 1.17148 1.67058 0.623951 -0.710571 -0.32523 84 104 126
0.518927 1.1635 1.66193 -0.631927 -0.0522833 -0.773262 105 122 145
0.569964 1.18814 1.6922 -0.715867 -0.192556 -0.67116 64 80 105
0.57427 1.17888 1.67843 -0.244245 -0.969664 -0.00977567 74 90 115
0.593762 1.18014 1.68229 -0.266169 -0.814358 -0.515728 121 135 157
0.603287 1.17658 1.67506 0.0695163 -0.983886 -0.164731 139 152 176
0.608117 1.17581 1.67287 -0.38521 -0.450794 -0.805231 110 121 143
0.615283 1.17351 1.67625 0.540575 -0.458318 -0.705495 94 102 125
0.624775 1.1739 1.67349 -3.96658e-05 -1 -0.000139504 141 145 166
0.652524 1.17373 1.67284 -0.322427 -0.925566 -0.198415 94 112 131
0.662235 1.17037 1.66673 -0.0492355 -0.996926 -0.0609521 154 154 161
0.68436 1.17015 1.66924 0.0391629 -0.798723 -0.600423 90 85 104
0.699764 1.17118 1.67095 -0.178657 -0.978327 -0.104676 165 163 179
0.705458 1.17002 1.66561 -0.416362 -0.892582 -0.173032 145 143 159
0.717592 1.16543 1.66286 -0.267142 -0.954321 -0.133813 91 100 121
0.726081 1.16419 1.65811 -0.483926 -0.842584 -0.236365 80 84 106
0.733687 1.16337 1.65509 -0.12702 -0.934135 -0.333555 128 132 149
0.740599 1.16017 1.65764 -0.0353159 -0.984737 -0.170429 150 152 171
0.741571 1.16042 1.65781 -0.298648 -0.923314 -0.241456 158 160 180
0.741204 1.16188 1.65471 -0.27827 -0.891244 -0.35812 155 157 176
0.74724 1.16001 1.6528 -0.504196 -0.836474 -0.214702 179 182 202
0.75526 1.15798 1.65458 -0.378846 -0.899746 -0.216639 200 206 226
0.764429 1.15919 1.65395 -0.420628 -0.902013 -0.0971818 203 211 232
0.772439 1.15637 1.64898 -0.495863 -0.864666 -0.080447 174 188 210
0.781692 1.15675 1.64634 0.384248 -0.899806 -0.206647 178 197 219
0.785729 1.15027 1.6403 -0.116266 -0.993218 -2.71882e-05 177 196 216
0.792788 1.14613 1.63071 0.0264198 -0.956548 -0.290374 186 203 226
0.802966 1.14758 1.63914 -0.228737 -0.871979 -0.432819 213 229 247
0.846995 1.16193 1.65547 -0.37615 -0.926558 -0.00128086 187 193 215
0.846153 1.16061 1.65479 -0.596591 -0.7944 -0.114054 192 197 219
0.85205 1.16091 1.65372 -0.0363335 -0.99698 -0.0686343 167 177 201
0.870573 1.15746 1.65123 -0.00355342 -0.999955 -0.00880361 204 217 245
0.882804 1.15852 1.65325 -0.00351487 -0.999955 -0.00881231 180 196 225
0.911103 1.15603 1.64745 -0.0261772 -0.999592 -0.0113877 183 189 209
0.918687 1.15065 1.63995 -1.69743e-05 -1 -9.90766e-07 207 208 229
0.0996588 1.20323 1.70517 0.420127 -0.906643 -0.0386203 53 56 77
0.119453 1.20313 1.70452 0.734357 -0.645821 -0.208889 88 95 114
0.12426 1.20737 1.71458 0.619473 -0.655476 -0.431977 105 113 130
0.133548 1.19974 1.70611 0.263704 -0.96448 -0.015423 144 150 167
0.153656 1.19816 1.69821 0.194928 -0.980673 -0.0168177 222 229 240
0.153861 1.19865 1.69914 -0.459442 -0.784371 -0.416742 221 228 239
0.192778 1.21541 1.72176 -0.453463 -0.846953 -0.277565 48 48 64
0.197169 1.2076 1.71643 0.648342 -0.743041 -0.16596 41 40 57
0.20708 1.20763 1.71443 -0.349327 -0.841557 -0.412011 55 52 70
0.219874 1.20629 1.71086 -0.523234 -0.778289 -0.34712 48 45 63
0.225218 1.204 1.70551 -0.504319 -0.801744 -0.320733 41 38 55
0.240817 1.20044 1.70225 -0.279652 -0.921331 -0.270082 42 39 59
0.255675 1.20278 1.70551 -0.593754 -0.676741 -0.435292 36 41 61
0.276338 1.19127 1.69459 -0.297603 -0.856132 -0.422458 103 110 131
0.286723 1.18597 1.68363 -0.649185 -0.500974 -0.57235 111 123 151
0.289742 1.18062 1.67585 1.85647e-05 -1 -2.37137e-05 121 134 162
0.308613 1.18529 1.68607 0.606996 -0.511523 -0.608194 231 247 253
0.321592 1.18943 1.68628 -0.0515024 -0.921131 -0.385831 97 110 137
0.33481 1.18829 1.68601 -0.407199 -0.804698 -0.432031 173 187 210
0.34554 1.18818 1.68963 0.263362 -0.43399 -0.861564 103 114 136
0.361818 1.19565 1.69526 0.681268 -0.670586 -0.293577 51 62 85
0.368119 1.1975 1.69984 0.426448 -0.83625 -0.344715 123 134 157
0.383543 1.19934 1.69828 -0.191048 -0.389089 -0.901172 79 88 108
0.388427 1.19638 1.6998 0.0733169 -0.647969 -0.75813 150 160 180
0.396623 1.19698 1.69767 -0.668733 -0.353517 -0.654081 64 75 98
0.406316 1.19134 1.69219 -0.552417 -0.784524 -0.281703 28 38 59
0.419684 1.18772 1.68705 -2.41525e-05 -1 -0.000167742 35 43 64
0.446356 1.16464 1.65115 0.418266 -0.90225 -0.104876 85 92 111
0.468558 1.17118 1.6598 -0.0273074 -0.999013 -0.0350387 97 99 110
0.494329 1.18573 1.68552 -0.40308 -0.727955 -0.554624 148 151 166
0.498198 1.18132 1.67454 -0.50316 -0.842966 -0.190366 89 95 109
0.507679 1.17073 1.6636 -0.340907 -0.531182 -0.775647 98 106 124
0.508228 1.17058 1.66271 -0.418329 -0.454024 -0.786679 87 95 114
0.509611 1.17136 1.6627 -0.679552 -0.163011 -0.715288 71 79 99
0.514017 1.16974 1.65824 -0.6606 -0.114713 -0.741922 63 77 99
0.515916 1.1693 1.65877 -0.685426 -0.173322 -0.707213 71 88 110
0.52423 1.16038 1.64524 -0.501295 -0.659091 -0.560626 107 125 150
0.587366 1.17761 1.66752 0.274668 -0.959643 -0.0603592 107 120 145
0.59498 1.17757 1.67103 0.000140252 -1 -0.000145727 116 128 152
0.626155 1.16745 1.65711 -0.695434 -0.636597 -0.33334 129 138 160
0.643666 1.17484 1.66551 -4.59753e-05 -1 -4.30991e-05 148 164 187
0.654355 1.17348 1.6645 -1.52161e-05 -1 -6.60565e-05 96 115 138
0.673345 1.17032 1.66024 0.0980161 -0.983722 -0.150613 168 162 171
0.677334 1.17182 1.66531 0.0269369 -0.998452 -0.0486701 145 137 145
0.683617 1.17142 1.65924 -0.406958 -0.911631 -0.0575633 93 94 113
0.691161 1.17395 1.66675 -0.256841 -0.957341 -0.132401 125 124 137
0.709506 1.16871 1.65871 -0.0093735 -0.99993 -0.00719305 72 76 99
0.712777 1.16758 1.66036 -0.304239 -0.942494 -0.138365 81 87 110
0.717957 1.1674 1.65388 -0.0882536 -0.99336 -0.0738071 103 109 130
0.722396 1.16662 1.65351 -0.0402975 -0.782338 -0.62155 102 107 128
0.734371 1.16467 1.65143 -0.229112 -0.852564 -0.469725 177 177 196
0.741206 1.16404 1.65083 -0.415714 -0.750653 -0.513519 138 139 158
0.747464 1.16066 1.64885 -0.447211 -0.857601 -0.254013 129 131 151
0.755035 1.16008 1.6458 -0.195612 -0.910257 -0.364922 194 199 220
0.770488 1.15338 1.63534 6.36604e-05 -1 -0.000155902 164 180 202
0.794688 1.14678 1.6274 -0.0477133 -0.991135 -0.123999 197 215 238
0.837084 1.16424 1.65205 -0.00138462 -0.999999 -0.000429336 155 159 181
0.845208 1.16197 1.64759 -0.000138191 -1 -8.37808e-05 136 144 168
0.853808 1.16007 1.64789 -0.184374 -0.982856 -0.00053958 169 181 207
0.859451 1.15818 1.64542 -0.156807 -0.977854 -0.13861 164 178 207
0.868692 1.15535 1.64187 -0.125767 -0.992059 -0.000905261 170 187 217
0.882178 1.1575 1.64458 -1.37593e-05 -1 -4.48622e-05 143 164 193
0.872134 1.15304 1.63344 -0.530356 -0.845543 -0.0614749 134 156 188
0.114033 1.20835 1.70539 0.723872 -0.661584 -0.195744 165 170 190
0.110174 1.2073 1.70306 0.38913 -0.917241 -0.0851276 131 136 157
0.133662 1.20097 1.69517 0.676917 -0.718843 -0.158267 208 216 233
0.159983 1.19583 1.69132 -0.44962 -0.844033 -0.29232 222 228 244
0.167202 1.19587 1.68858 0.466649 -0.755126 -0.46046 218 224 240
0.173938 1.19727 1.69504 0.819024 -0.278897 -0.501414 74 78 94
0.197793 1.21277 1.71161 -0.199349 -0.57727 -0.791846 79 78 96
0.206255 1.20991 1.71287 0.0684534 -0.989148 -0.130001 60 57 75
0.212501 1.20958 1.70828 -0.462161 -0.760733 -0.455732 47 46 63
0.233296 1.20272 1.6972 -0.458007 -0.84919 -0.26288 40 37 56
0.249374 1.20643 1.70472 -0.477075 -0.147351 -0.866422 33 33 54
0.249521 1.20631 1.70686 -0.544773 -0.0788341 -0.83487 33 34 56
0.256344 1.20567 1.69969 -0.636575 -0.360526 -0.681758 34 39 59
0.269834 1.19483 1.69147 -0.609116 -0.644886 -0.461628 89 96 116
0.283004 1.19447 1.68812 -0.543437 -0.664387 -0.513094 54 65 92
0.288129 1.19074 1.68439 0.182306 -0.0789001 -0.980071 88 102 128
0.293204 1.1886 1.68268 -0.149371 0.11904 -0.981589 103 119 147
0.301874 1.18731 1.67944 -0.156634 0.302843 -0.940081 130 146 174
0.31364 1.19057 1.68233 0.0474446 -0.974305 -0.220179 141 159 184
0.327174 1.18731 1.67645 -0.527377 -0.795768 -0.297702 141 158 182
0.342759 1.19393 1.68572 0.2587 -0.887638 -0.381016 45 59 86
0.348984 1.19075 1.68341 -0.0217051 -0.983517 -0.179511 47 57 82
0.351944 1.1833 1.66976 0.64123 -0.728641 -0.240638 46 57 81
0.361149 1.19773 1.69561 0.477634 -0.768444 -0.425862 40 51 74
0.374587 1.19809 1.68972 -0.0780909 -0.976183 -0.202405 49 59 81
0.392462 1.20293 1.69592 0.342869 -0.453295 -0.822779 113 122 143
0.410533 1.18851 1.68183 -0.511531 -0.826011 -0.236731 44 54 76
0.462297 1.17198 1.65928 0.0674254 -0.996966 -0.0388826 110 112 124
0.487179 1.18672 1.67952 4.91637e-06 -1 -2.64445e-05 95 97 105
0.497433 1.16724 1.64825 -0.563381 -0.787664 -0.249373 78 89 102
0.497897 1.16666 1.64896 -0.575706 -0.774385 -0.262472 64 73 87
0.502283 1.17179 1.6544 -2.80757e-05 -1 -3.92233e-05 70 82 100
0.512246 1.17008 1.65668 -0.668524 -0.135146 -0.731308 52 64 86
0.51891 1.16573 1.64662 -0.67523 -0.627206 -0.388171 75 89 115
0.525639 1.16122 1.6382 -0.718657 -0.405754 -0.564709 103 123 150
0.558298 1.17454 1.65974 -0.00332082 -0.999955 -0.00885101 61 75 101
0.559622 1.17351 1.65764 -0.615792 -0.739368 -0.272277 59 72 99
0.576894 1.17793 1.66348 0.136595 -0.990594 -0.00808658 78 92 119
0.578949 1.177 1.66056 0.080595 -0.977667 -0.194093 71 85 111
0.587187 1.17776 1.6666 0.230095 -0.972487 -0.0364022 106 118 144
0.604753 1.17945 1.66662 -0.000586691 -1 -0.000586952 121 134 156
0.610807 1.17592 1.66171 0.499367 -0.476823 -0.723376 110 121 145
0.620503 1.17534 1.66026 -0.624512 -0.741857 -0.244199 54 60 89
0.637376 1.16934 1.64847 0.22733 -0.9527 -0.201703 109 125 149
0.651398 1.17364 1.66096 -0.265804 -0.964027 -0.000212793 132 155 180
0.662005 1.17066 1.65469 -0.0345045 -0.993338 -0.10995 154 143 159
0.657032 1.14704 1.61746 -0.659369 -0.0138451 -0.751692 150 152 171
0.690976 1.16549 1.64812 -1.90738e-05 -1 -5.9605e-06 118 116 133
0.699775 1.17698 1.66561 -0.682844 -0.681453 -0.263338 134 131 150
0.704878 1.17083 1.6551 -0.412929 -0.909194 -0.0534506 90 95 115
0.708107 1.16832 1.64788 -9.34816e-05 -1 -8.56631e-05 94 102 123
0.728466 1.16836 1.65021 -0.219576 -0.671212 -0.707998 183 184 203
0.73419 1.16709 1.64805 -0.249694 -0.829809 -0.499069 170 172 192
0.741342 1.16585 1.64821 -0.476044 -0.739088 -0.476582 115 117 137
0.746777 1.16348 1.6456 -0.559518 -0.623385 -0.546196 108 111 131
0.751429 1.16295 1.6393 -0.0451094 -0.942921 -0.329946 121 128 150
0.761755 1.15979 1.64067 -0.330973 -0.858524 -0.391654 153 165 187
0.766178 1.15623 1.63168 -0.545013 -0.831215 -0.109741 146 162 186
0.776214 1.15169 1.6259 0.052292 -0.944886 -0.323195 149 168 192
0.777613 1.15159 1.62395 0.0457262 -0.854016 -0.518233 161 181 207
0.784493 1.14937 1.62712 -0.18326 -0.979464 -0.0840635 185 206 230
0.786247 1.14764 1.62044 -0.402154 -0.823821 -0.399488 199 219 242
0.792162 1.14923 1.6202 0.512045 -0.07839 -0.855374 205 224 248
0.793093 1.14699 1.61814 -0.606383 -0.77177 -0.191497 203 223 246
0.806137 1.15684 1.63801 -0.00200457 -0.999996 -0.00174559 200 216 240
0.812746 1.15324 1.62993 -0.00356681 -0.999954 -0.00887191 140 156 180
0.814545 1.15513 1.63309 -5.58806e-06 -1 -3.78848e-06 125 140 164
0.823274 1.15463 1.62745 5.60811e-06 -1 -9.08593e-05 117 135 159
0.827938 1.15354 1.62845 -0.466767 -0.883356 -0.0425521 111 130 156
0.846557 1.16236 1.64531 -0.000196095 -1 -5.55237e-05 156 163 189
0.851255 1.1613 1.64185 -0.000116592 -1 -0.000164537 151 163 191
0.854371 1.15617 1.63672 -0.666027 -0.728223 -0.161555 120 136 166
0.85592 1.15947 1.63626 0.211328 -0.933554 -0.289511 86 105 137
0.859094 1.15916 1.63442 -0.334936 -0.854033 -0.398053 99 119 151
0.865137 1.1622 1.63967 -0.723173 -0.658014 -0.209855 113 133 166
0.869207 1.15576 1.63528 0.181635 -0.780374 -0.598352 126 148 181
0.872983 1.14588 1.61757 -0.266205 -0.949739 -0.164713 136 157 188
0.881905 1.14244 1.61571 -0.000150378 -1 -0.000323901 124 142 172
0.919461 1.14585 1.61559 0.452244 -0.78503 -0.423325 186 190 213
0.923928 1.14667 1.61703 -0.193444 -0.837519 -0.51102 199 203 227
0.109666 1.20819 1.6991 0.487172 -0.864645 -0.12269 204 210 227
0.128249 1.2044 1.69313 0.687075 -0.708002 -0.163283 231 239 249
0.153201 1.19738 1.68458 -0.377566 -0.888792 -0.259792 235 241 252
0.173974 1.20203 1.68798 0.548018 -0.674709 -0.494413 107 110 129
0.206218 1.21383 1.70566 -0.313071 -0.651126 -0.691391 96 94 112
0.243121 1.21443 1.71 -0.506936 -0.804557 -0.309362 36 36 56
0.257 1.20853 1.69846 -0.626255 -0.281292 -0.727104 44 50 71
0.263112 1.20518 1.69108 -0.635552 -0.379641 -0.672269 41 46 68
0.276054 1.19562 1.68275 -0.507449 -0.808281 -0.298627 70 80 102
0.288217 1.1949 1.6825 -0.543147 -0.694562 -0.471778 114 129 153
0.312484 1.19416 1.67605 0.655831 -0.718619 -0.231241 118 132 155
0.321065 1.19031 1.67659 -0.186541 -0.98201 -0.0293219 67 85 109
0.330042 1.18942 1.66944 -2.7063e-06 -1 -0.000642965 112 124 148
0.334639 1.19114 1.67708 0.427944 -0.901214 -0.0683859 106 119 144
0.344633 1.1947 1.68078 0.304597 -0.952402 -0.0122924 71 84 109
0.356309 1.18633 1.66449 0.566157 -0.669104 -0.481421 44 54 78
0.367802 1.20118 1.68988 0.148121 -0.969289 -0.196313 40 50 73
0.383105 1.1998 1.68699 -0.00348853 -0.999954 -0.00890296 74 84 106
0.384043 1.19937 1.68773 -0.00340567 -0.999955 -0.0088048 77 87 109
0.408867 1.19604 1.67918 -0.637334 -0.151559 -0.755536 91 100 124
0.454635 1.16883 1.64642 0.586241 -0.744549 -0.319324 158 166 187
0.469017 1.17273 1.64997 -0.597231 -0.742838 -0.302501 119 123 139
0.481247 1.17057 1.64977 -3.46811e-05 -1 -0.000113633 106 110 121
0.488347 1.16912 1.64426 -8.34851e-05 -1 -0.000149806 155 161 179
0.50303 1.16844 1.64406 0.136171 -0.881002 -0.453093 121 132 153
0.516217 1.16938 1.64576 -0.631139 -0.495933 -0.596418 45 58 83
0.521213 1.16798 1.63934 -0.65615 -0.52505 -0.542024 64 79 104
0.534563 1.16781 1.64426 0.581968 -0.762789 -0.281899 107 127 153
0.567218 1.173 1.64978 0.0903038 -0.994099 -0.0601109 75 91 117
0.593089 1.17782 1.65805 0.176603 -0.873415 -0.453825 183 198 223
0.613608 1.17844 1.65959 -0.248945 -0.951035 -0.183191 64 72 98
0.62094 1.17639 1.65327 -0.660418 -0.694946 -0.284424 76 83 109
0.625601 1.1732 1.65157 -0.646071 -0.715787 -0.265032 70 80 106
0.610227 1.14767 1.61049 0.614768 -0.622336 -0.484519 113 122 149
0.630059 1.17152 1.64394 -0.264488 -0.896284 -0.355978 53 66 90
0.641951 1.16556 1.63919 -0.541843 -0.489458 -0.683255 146 164 188
0.67287 1.17118 1.64806 7.70626e-05 -1 -8.93258e-05 156 156 175
0.689843 1.16341 1.63401 -0.242094 -0.970253 -0.000229483 197 204 228
0.71683 1.16973 1.64761 -0.112501 -0.874484 -0.471827 166 170 189
0.717698 1.16781 1.64214 -0.000104977 -1 -0.000130605 169 173 194
0.721935 1.16625 1.63798 -0.00346415 -0.999955 -0.00879422 171 176 197
0.733573 1.16857 1.64475 -0.0888227 -0.946184 -0.311201 161 165 186
0.744477 1.16554 1.63594 -0.199472 -0.979857 -0.00953665 141 145 167
0.754833 1.16286 1.63764 -0.23255 -0.96115 -0.148702 104 112 135
0.75818 1.1626 1.63287 -4.80624e-05 -1 -0.000187367 110 121 147
0.761336 1.15904 1.62883 -0.388675 -0.921071 -0.0236493 143 156 182
0.759779 1.16008 1.6292 -0.488064 -0.869593 -0.0748373 127 139 165
0.771374 1.15472 1.62202 0.0198605 -0.847533 -0.530371 157 174 200
0.781274 1.15257 1.6209 -0.235178 -0.707341 -0.666603 185 205 231
0.7821 1.15217 1.62021 -0.375009 -0.638266 -0.672298 190 210 235
0.794141 1.15053 1.61853 0.162799 -0.540325 -0.825558 204 224 247
0.792672 1.14726 1.61627 -0.626954 -0.690241 -0.361242 204 224 248
0.805902 1.15884 1.62729 -0.434737 -0.897559 -0.0734292 198 214 241
0.805942 1.15773 1.62772 -0.294493 -0.948974 -0.112791 199 214 241
0.813751 1.1555 1.62201 -0.0188141 -0.991496 -0.128769 83 105 132
0.829352 1.15439 1.62651 -0.287536 -0.954137 -0.0833369 174 191 215
0.829883 1.15423 1.62458 -0.0670323 -0.99745 -0.0244885 195 211 233
0.839606 1.1546 1.62442 -0.0567676 -0.998025 -0.026892 139 149 176
0.840454 1.15398 1.621 -0.0848278 -0.996396 -0.000380695 123 134 162
0.842441 1.15367 1.62258 -0.332929 -0.942952 -7.19402e-05 119 128 156
0.844346 1.15084 1.61639 -0.50163 -0.85942 -0.0988157 83 96 126
0.863914 1.15026 1.61615 -0.559734 -0.824486 -0.0831956 121 140 173
0.873805 1.14455 1.6111 -0.798618 -0.123047 -0.589125 121 140 172
0.878038 1.14511 1.61002 -0.634503 -0.758855 -0.146781 111 128 161
0.881659 1.14456 1.60647 -0.171089 -0.94937 -0.263486 136 151 182
0.891393 1.14408 1.60778 0.313723 -0.9309 -0.187091 203 216 238
0.89863 1.14482 1.60693 0.465752 -0.0748927 -0.881741 159 169 194
0.909277 1.14199 1.60761 0.337883 0.0978944 -0.936083 199 203 226
0.108654 1.20715 1.68608 -0.0034439 -0.999955 -0.00883443 233 238 250
0.113876 1.20878 1.69126 0.154093 -0.985573 0.0700113 243 249 255
0.122595 1.20563 1.68804 0.339329 -0.940632 -0.00821924 241 247 254
0.137237 1.19891 1.68066 -1.60115e-05 -1 -1.66269e-05 235 243 252
0.14583 1.20046 1.67964 -0.256686 -0.955609 -0.144651 241 248 255
0.167162 1.2001 1.68078 0.733055 -0.428942 -0.527863 212 219 234
0.181217 1.20957 1.69061 0.629665 -0.426206 -0.649516 63 65 84
0.188935 1.2156 1.70389 0.659052 -0.733423 -0.166554 78 80 99
0.199499 1.21702 1.70298 -0.157638 -0.825207 -0.542387 63 63 83
0.212462 1.21546 1.70274 -0.356892 -0.490866 -0.794782 62 60 78
0.281955 1.19987 1.68259 -0.442356 -0.830766 -0.337859 63 74 96
0.287983 1.20021 1.67761 -0.514924 -0.731955 -0.4462 76 86 108
0.302237 1.1934 1.66912 3.30203e-05 -1 -0.000229214 132 145 168
0.3066 1.19494 1.66943 0.32 -0.947393 -0.00682711 137 153 175
0.321221 1.19164 1.66666 0.000121617 -0.997554 -0.0699001 144 155 178
0.327386 1.19052 1.66279 -0.297206 -0.460333 -0.836518 151 160 185
0.3613 1.19359 1.67115 0.705719 -0.627909 -0.328162 46 56 80
0.374937 1.20118 1.68223 -0.00348244 -0.999954 -0.00890855 51 59 83
0.455208 1.17193 1.63821 0.146046 -0.977104 -0.154722 223 233 248
0.463358 1.17423 1.64345 0.492917 -0.855557 -0.15829 221 231 248
0.473578 1.17136 1.64229 -0.435555 -0.827613 -0.354045 121 126 142
0.479623 1.17128 1.63625 0.382569 -0.917975 -0.104705 190 197 217
0.496362 1.1703 1.64116 -0.141126 -0.913189 -0.382321 187 193 213
0.511439 1.17493 1.64527 -0.408145 -0.645366 -0.645694 68 82 104
0.523203 1.16755 1.63134 -0.496125 -0.851011 -0.172165 59 74 100
0.529464 1.17122 1.63997 0.440571 -0.474425 -0.762114 68 85 110
0.5458 1.17871 1.65333 -1.80334e-05 -1 -2.3221e-05 48 64 92
0.557845 1.17428 1.64647 -0.00603502 -0.774209 -0.632901 33 50 76
0.57737 1.17762 1.6472 0.200636 -0.963359 -0.178003 90 102 127
0.586223 1.17965 1.65503 0.286987 -0.878989 -0.380811 168 179 206
0.599918 1.17992 1.65332 -0.0120355 -0.964681 -0.263145 178 187 213
0.604976 1.17989 1.65471 -0.0836315 -0.984398 -0.154813 85 95 120
0.636892 1.17144 1.6397 -0.368865 -0.820669 -0.436396 154 171 196
0.652267 1.15424 1.61852 -0.21278 0.154838 -0.964754 113 127 148
0.683244 1.16501 1.63266 -0.36472 -0.930533 -0.0329726 180 183 204
0.701374 1.16437 1.63313 -0.0598047 -0.997997 -0.0206153 200 207 232
0.711587 1.16377 1.62703 -0.182279 -0.930413 -0.317971 155 161 185
0.749804 1.16338 1.62735 8.43887e-06 -1 -8.26153e-05 127 135 159
0.763949 1.15676 1.61757 -0.192955 -0.946269 -0.259505 136 150 176
0.775089 1.15575 1.61909 -0.0467938 -0.613262 -0.788492 128 145 174
0.787814 1.15402 1.6168 -0.111799 -0.492219 -0.863262 171 191 218
0.788045 1.1536 1.61677 -0.106321 -0.514421 -0.850921 179 200 226
0.795655 1.15511 1.6174 -0.158074 -0.793949 -0.587076 177 197 224
0.824619 1.15436 1.61241 0.0781484 -0.996942 -5.52406e-05 213 227 250
0.832103 1.15822 1.61942 -0.357609 -0.933871 -0.000384382 216 230 253
0.850034 1.15029 1.60998 -0.516311 -0.854064 -0.0632297 102 123 157
0.861325 1.15064 1.61345 -0.34986 -0.636452 -0.687406 117 136 171
0.864348 1.14837 1.60912 -0.238336 -0.391121 -0.888944 120 138 172
0.871025 1.14839 1.6082 -0.0983543 -0.97613 -0.193639 118 135 170
0.883478 1.14529 1.60327 -0.23448 -0.93939 -0.250131 187 197 224
0.88912 1.1454 1.60103 0.00166436 -0.939327 -0.343019 186 198 226
0.914986 1.15186 1.60924 0.264231 -0.418379 -0.868988 151 153 180
0.915777 1.14579 1.60698 0.50889 -0.174001 -0.843063 165 169 194
0.923216 1.15108 1.61083 -0.23025 -0.66506 -0.710408 154 159 184
0.115143 1.20559 1.67832 6.91871e-05 -1 -5.9892e-05 221 227 243
0.12161 1.20506 1.68254 -0.14084 -0.988824 -0.0489054 238 246 254
0.13246 1.20492 1.67545 6.33011e-05 -1 -1.49586e-05 230 235 250
0.140767 1.19906 1.67 -0.478865 -0.811037 -0.336017 236 243 254
0.143562 1.20302 1.67501 0.760317 -0.0480357 -0.647773 236 243 254
0.159855 1.19506 1.66886 0.698878 -0.540631 -0.468282 233 240 252
0.165941 1.20469 1.68102 0.557029 -0.377633 -0.73967 213 220 236
0.175362 1.21011 1.68438 0.524549 -0.418473 -0.741437 72 78 96
0.190577 1.22078 1.70223 -0.154237 -0.97259 -0.174011 79 82 102
0.206059 1.21806 1.69949 -0.188362 -0.866247 -0.462749 69 68 88
0.212692 1.21949 1.69655 0.0125049 -0.947474 -0.319588 55 55 74
0.218698 1.21082 1.69027 -0.0969593 -0.995288 -6.1333e-06 56 54 73
0.282369 1.2048 1.67724 -0.377656 -0.673401 -0.635537 49 63 89
0.310725 1.18757 1.65509 0.0018688 -0.999928 -0.0118716 138 151 176
0.333725 1.19006 1.65985 -0.409786 -0.381311 -0.82866 108 120 145
0.445397 1.17194 1.63126 -0.0805331 -0.985377 -0.150152 77 85 110
0.46642 1.17548 1.64056 -0.258128 -0.965532 -0.0334301 192 200 220
0.474642 1.17137 1.63247 -0.193884 -0.981025 -7.60325e-05 136 142 163
0.487941 1.16889 1.6325 0.000233247 -0.999974 -0.00715223 150 158 179
0.494458 1.16887 1.62756 -2.08102e-06 -1 -1.60343e-05 107 118 140
0.50174 1.16918 1.63257 4.38114e-05 -1 -5.21936e-05 106 118 139
0.535006 1.17517 1.63949 -0.328829 -0.930305 -0.162495 62 80 108
0.538704 1.17622 1.63557 0.000948989 -1 -0.000123322 66 83 111
0.543619 1.1756 1.63758 0.0453288 -0.917547 -0.395036 41 57 85
0.550576 1.1793 1.64589 0.000227303 -1 -1.24993e-05 39 55 84
0.557605 1.17836 1.6401 0.122218 -0.972935 -0.196114 131 145 173
0.566152 1.17799 1.64471 0.0834711 -0.990275 -0.111304 53 66 92
0.568833 1.17833 1.64368 6.29062e-05 -1 -3.75674e-05 75 87 112
0.584592 1.1763 1.63633 3.66522e-05 -1 -1.63408e-05 58 72 99
0.595622 1.17991 1.64784 -2.10657e-05 -1 -5.92663e-05 114 125 150
0.602557 1.17672 1.63828 -5.5848e-05 -1 -4.97895e-05 44 56 83
0.629683 1.1738 1.63545 0.59066 -0.707678 -0.387702 45 59 86
0.641843 1.16894 1.63221 -0.534717 -0.831487 -0.150687 177 194 220
0.644032 1.17253 1.63187 -0.756269 -0.274295 -0.593986 174 186 213
0.64755 1.16949 1.62709 -0.640369 0.00521513 -0.76805 163 174 200
0.666615 1.17027 1.6309 -0.28821 -0.957567 -0.000146865 107 115 137
0.674113 1.16751 1.62601 -0.445856 -0.886696 -0.122402 73 79 103
0.688252 1.16569 1.62389 0.0600298 -0.900652 -0.430376 208 217 240
0.688288 1.1648 1.62517 0.140265 -0.816345 -0.560274 214 222 245
0.700651 1.16547 1.62449 -0.0658926 -0.993786 -0.0897119 98 107 133
0.701606 1.16501 1.62181 -0.0338338 -0.999387 -0.0089937 68 78 103
0.720006 1.16004 1.6163 -0.43948 -0.896353 -0.0583798 118 127 153
0.728994 1.1585 1.61342 2.26015e-05 -1 -4.55875e-07 196 206 234
0.739749 1.15825 1.61414 -6.60867e-05 -1 -2.05796e-05 190 201 226
0.758734 1.16126 1.61754 6.37965e-05 -1 -0.00012892 110 124 151
0.77078 1.15982 1.61556 0.150078 -0.649085 -0.745765 184 202 232
0.781874 1.15754 1.61581 -0.251924 -0.548855 -0.797052 47 67 98
0.789023 1.15913 1.6136 -0.294593 -0.810421 -0.506393 117 136 165
0.794067 1.15706 1.61541 0.0793158 -0.656602 -0.750055 100 119 148
0.802326 1.15696 1.61444 0.00013859 -1 -0.000227499 144 161 190
0.800326 1.15973 1.61246 0.067057 -0.927809 -0.366978 60 77 110
0.81122 1.15631 1.61397 1.29764e-05 -1 -1.62788e-05 141 156 185
0.815922 1.15676 1.61107 1.1658e-05 -1 -8.00583e-06 191 199 228
0.818771 1.15474 1.60554 0.258566 -0.377192 -0.889308 197 206 236
0.825682 1.15232 1.60221 -0.0924681 -0.973185 -0.21062 213 226 250
0.836645 1.15414 1.61181 -1.63687e-05 -1 -5.97433e-05 211 226 250
0.857233 1.15121 1.60632 0.149417 -0.673496 -0.723932 105 126 161
0.867028 1.15388 1.60555 0.307812 -0.869434 -0.386441 74 90 126
0.876319 1.14914 1.60333 -0.537536 -0.717925 -0.44231 55 67 102
0.877577 1.1504 1.60245 -0.670899 -0.654771 -0.348095 49 62 96
0.882136 1.14837 1.59859 -0.489423 -0.754453 -0.43734 79 95 128
0.890954 1.1481 1.59847 0.200128 -0.863084 -0.463719 117 129 161
0.895877 1.14857 1.59907 -0.0581411 -0.594672 -0.801863 129 139 168
0.903003 1.15005 1.60394 0.2477 -0.0366804 -0.968142 122 130 159
0.922683 1.15611 1.60968 0.540237 -0.264281 -0.798936 81 88 116
0.121094 1.20391 1.66884 0.247191 -0.828882 -0.501849 116 119 143
0.134318 1.20379 1.66733 -0.583186 -0.604684 -0.542449 225 230 245
0.132848 1.2022 1.6684 -0.566597 -0.614309 -0.549175 227 232 247
0.1476 1.20419 1.66752 0.468223 -0.351744 -0.810582 229 236 252
0.153171 1.20227 1.66738 0.290907 -0.387376 -0.874822 232 239 252
0.166159 1.21095 1.67812 -0.0123402 -0.737767 -0.674943 153 158 179
0.172666 1.21006 1.68179 0.501006 -0.357055 -0.788356 107 112 132
0.18046 1.21594 1.68343 0.71366 -0.465355 -0.523578 105 107 130
0.186649 1.21876 1.6927 0.0600888 -0.997571 -0.0352417 100 104 125
0.199355 1.21974 1.69502 -0.0152999 -0.994642 -0.10224 74 76 97
0.205662 1.2193 1.68948 -0.108558 -0.993892 -0.0198242 65 68 89
0.30141 1.18934 1.65167 4.77762e-05 -1 -0.000132892 118 133 159
0.306983 1.18782 1.64429 -0.266802 -0.960824 -0.0750539 128 146 173
0.436875 1.17274 1.6258 -0.276854 -0.95965 -0.0492237 191 199 225
0.454137 1.17312 1.62796 -0.0538723 -0.979683 -0.193179 197 207 229
0.45521 1.17234 1.62733 -0.0966512 -0.994614 -0.0374357 205 214 237
0.465882 1.17449 1.62794 -5.33578e-05 -1 -6.77408e-07 190 199 223
0.479248 1.17111 1.62157 0.445763 -0.883695 -0.142755 77 87 112
0.488425 1.17013 1.62228 0.325412 -0.943945 -0.0554606 96 106 130
0.500202 1.17003 1.62325 5.37155e-06 -1 -7.38932e-06 107 119 143
0.516687 1.17026 1.61985 0.614187 -0.0660317 -0.786393 90 104 130
0.527171 1.17377 1.62616 0.0555937 -0.998447 -0.00371072 103 120 146
0.549909 1.17788 1.63183 0.0938056 -0.995591 -1.00713e-05 58 73 102
0.565231 1.17808 1.63207 0.000122695 -1 -0.000152765 129 145 174
0.575681 1.17616 1.63163 2.45165e-05 -1 -1.51218e-05 103 119 147
0.611472 1.16814 1.62196 -0.0942212 -0.995108 -0.0297129 91 104 128
0.623459 1.17167 1.62223 -1.96347e-05 -1 -7.60573e-06 61 75 104
0.660772 1.16668 1.62005 -0.0781197 0.388838 -0.917988 89 97 122
0.66749 1.16799 1.61758 -0.275348 -0.860249 -0.429134 119 125 149
0.671992 1.16812 1.62299 -0.494287 -0.861943 -0.112851 78 85 109
0.679985 1.16672 1.61823 -0.146838 -0.951935 -0.26881 78 91 116
0.691778 1.16658 1.61739 -0.312067 -0.93516 -0.167601 51 64 93
0.699564 1.16529 1.6129 -0.000489733 -1 -0.00040043 71 84 112
0.710313 1.16439 1.61597 -0.00363946 -0.999951 -0.00917413 134 147 174
0.712094 1.16468 1.61569 -0.0867895 -0.996185 -0.00917061 131 142 168
0.7176 1.16161 1.61207 -0.334886 -0.941587 -0.0355707 112 121 147
0.72504 1.16072 1.60756 -0.285471 -0.932081 -0.223007 85 97 128
0.748645 1.16209 1.61347 2.21712e-05 -1 -3.0842e-05 176 190 217
0.763549 1.16124 1.61126 -0.00747163 -0.732019 -0.681244 180 197 227
0.775684 1.1608 1.61387 -0.0830865 -0.839791 -0.536515 138 156 187
0.781912 1.16176 1.60939 -0.359186 -0.841615 -0.403323 145 160 187
0.793128 1.16149 1.60842 -0.01831 -0.96075 -0.276809 90 109 142
0.805196 1.15948 1.60886 -0.722081 -0.365231 -0.587542 77 93 125
0.808556 1.15519 1.59985 -0.445091 -0.884765 -0.138151 60 75 107
0.834416 1.15294 1.60182 0.14516 -0.988628 -0.03928 175 188 218
0.85004 1.15459 1.60426 0.098855 -0.995 -0.0142462 81 98 134
0.869465 1.15261 1.60181 -0.00327694 -0.999952 -0.00918115 62 79 114
0.869832 1.15896 1.60861 0.535375 -0.195343 -0.821714 63 80 116
0.873827 1.15858 1.60593 -0.780366 -0.0804576 -0.620126 61 79 114
0.876418 1.15308 1.59695 -0.76421 -0.5946 -0.249869 60 76 110
0.90966 1.15677 1.60139 0.285821 -0.364361 -0.886311 66 69 101
0.920269 1.15899 1.60716 0.504662 -0.169472 -0.84652 66 72 103
0.114418 1.20196 1.6612 -0.493176 -0.787143 -0.370383 78 83 104
0.12166 1.20841 1.66672 -0.198417 -0.909103 -0.366282 101 108 129
0.127081 1.20834 1.66893 -0.369405 -0.546142 -0.751844 106 112 135
0.132484 1.20662 1.6682 0.733506 -0.0361103 -0.678723 186 191 212
0.140989 1.20492 1.6656 -0.477652 -0.796725 -0.370241 217 224 243
0.15987 1.21112 1.67256 0.347096 -0.694876 -0.629819 156 162 185
0.177179 1.21481 1.67904 0.80061 -0.348981 -0.487069 103 107 129
0.184531 1.20806 1.66574 2.82455e-05 -1 -2.16223e-06 68 74 95
0.184531 1.20806 1.66574 2.82455e-05 -1 -2.16223e-06 68 74 95
0.184531 1.20806 1.66574 2.82455e-05 -1 -2.16223e-06 68 74 95
0.196447 1.21943 1.68688 0.0308535 -0.999524 -7.76418e-05 66 69 92
0.283473 1.21443 1.67859 -0.407816 -0.797161 -0.445219 66 82 106
0.300687 1.1902 1.6446 -0.323302 -0.939173 -0.115889 87 105 130
0.317887 1.18529 1.63458 0.218357 -0.843004 -0.491593 98 117 143
0.314151 1.18703 1.64108 -0.465268 -0.853779 -0.233638 115 133 159
0.321727 1.18808 1.64012 -6.84272e-05 -1 -0.000116535 67 85 111
0.427807 1.17434 1.61909 -0.298606 -0.952299 -0.0629426 165 175 202
0.445468 1.17253 1.62064 -0.0115807 -0.999906 -0.00736493 133 145 170
0.455588 1.17373 1.61779 -0.0061039 -0.999979 -0.00227915 152 164 189
0.465981 1.17441 1.62467 -3.13115e-06 -1 -1.63552e-06 187 197 220
0.463007 1.17387 1.61932 -0.0055161 -0.999929 -0.0105632 150 161 185
0.474078 1.17297 1.61854 -0.230167 -0.971253 -0.0607451 89 100 126
0.492394 1.16861 1.6147 -0.0285491 -0.785275 -0.618489 108 120 145
0.504685 1.1699 1.61634 0.372201 -0.564973 -0.736391 65 79 105
0.509086 1.1707 1.61782 0.680547 -0.218176 -0.699467 61 75 102
0.510408 1.17153 1.6148 -0.138965 -0.620644 -0.77168 64 78 104
0.535964 1.17024 1.61527 1.1758e-05 -1 -8.50899e-09 74 89 116
0.559161 1.17543 1.62071 0.136073 -0.990699 -5.23236e-05 143 156 185
0.586255 1.17541 1.6228 0.190395 -0.981677 -0.00779135 130 143 171
0.604377 1.16988 1.61854 -0.374719 -0.916333 -0.141137 46 57 86
0.61062 1.1697 1.61187 0.0453646 -0.925466 -0.376104 115 126 153
0.618405 1.1693 1.61713 0.183683 -0.891941 -0.413161 137 149 176
0.635862 1.17509 1.62568 0.000105446 -1 -6.57989e-05 51 66 94
0.642619 1.17564 1.62435 -0.29141 -0.525186 -0.799537 46 59 86
0.642605 1.17562 1.62431 -0.291157 -0.536855 -0.791842 46 59 86
0.652658 1.17247 1.62038 -0.72494 -0.152241 -0.671778 47 57 85
0.656451 1.17213 1.6195 -0.432111 -0.474069 -0.767163 51 61 89
0.675889 1.16761 1.61333 -0.0116929 -0.999543 -0.0278928 124 136 162
0.684967 1.17177 1.61583 -0.5869 -0.791742 -0.169391 100 115 144
0.701507 1.16495 1.60943 -0.0424582 -0.999057 -0.00911268 98 111 142
0.729479 1.16042 1.6012 -0.507931 -0.704015 -0.496356 64 77 111
0.737843 1.15795 1.60182 0.228466 -0.969979 -0.0833317 193 205 232
0.754869 1.16059 1.60435 6.24287e-05 -1 -0.000250256 145 159 191
0.771758 1.16666 1.61289 -0.270109 -0.448575 -0.851952 162 176 209
0.775482 1.16539 1.60661 -0.194692 -0.913787 -0.356496 114 133 168
0.788908 1.16232 1.60634 -0.00349751 -0.999955 -0.00887551 83 104 136
0.794 1.16528 1.60651 0.392141 -0.895629 -0.209939 73 95 128
0.794894 1.16633 1.60739 0.406366 -0.885942 -0.223549 72 94 128
0.81331 1.16057 1.6026 0.110514 0.0515137 -0.992539 69 87 123
0.820257 1.15819 1.59935 0.00471029 -0.0896836 -0.995959 72 90 125
0.828297 1.15738 1.59828 -0.152491 -0.0563861 -0.986695 75 91 126
0.837957 1.15943 1.59984 -0.0414289 -0.123252 -0.99151 70 84 123
