0.083 1.406 6.065
0.091 1.077 6.154
0.112 1.493 5.995
0.112 1.493 5.995
0.150 0.120 6.622
0.158 0.254 6.530
0.158 0.254 6.530
0.177 0.146 6.536
0.218 0.831 5.990
0.250 1.079 5.875
0.281 0.242 6.199
0.316 0.682 5.940
0.319 0.753 5.926
0.330 0.167 6.111
0.330 0.298 6.093
0.333 0.202 6.126
0.327 0.659 5.941
0.354 0.125 6.074
0.352 0.944 5.797
0.355 1.199 5.732
0.363 1.183 5.729
0.363 1.183 5.729
0.400 -0.030 6.106
0.400 -0.030 6.106
0.399 0.127 6.033
0.414 0.050 6.017
0.395 1.231 5.695
0.407 1.027 5.749
0.438 0.561 5.894
0.447 0.097 6.003
0.436 0.805 5.800
0.429 1.171 5.696
0.440 0.982 5.734
0.452 0.749 5.817
0.454 0.703 5.828
0.447 1.087 5.695
0.446 1.205 5.661
0.467 0.845 5.759
0.487 0.146 6.003
0.468 0.923 5.734
0.542 -0.540 6.609
0.494 0.014 5.990
0.476 0.936 5.722
0.518 -0.192 6.157
0.487 1.027 5.698
0.518 0.073 5.975
0.508 0.620 5.821
0.508 0.620 5.821
0.526 0.026 5.976
0.506 0.921 5.714
0.534 0.219 6.006
0.533 0.010 5.985
0.537 0.038 5.974
0.540 -0.047 6.004
0.548 0.225 5.999
0.528 0.817 5.750
0.533 1.111 5.672
0.533 1.122 5.666
0.545 0.859 5.710
0.545 0.859 5.710
0.574 0.310 5.971
0.554 0.871 5.690
0.554 0.871 5.690
0.566 0.521 5.766
0.566 0.521 5.766
0.652 -0.575 6.570
0.563 0.978 5.644
0.589 0.485 5.803
0.577 0.979 5.636
0.616 0.107 5.938
0.587 0.987 5.633
0.604 0.464 5.794
0.578 1.357 5.537
0.688 -0.597 6.564
0.606 0.973 5.620
0.598 1.314 5.546
0.625 0.440 5.759
0.738 -0.665 6.604
0.635 0.889 5.659
0.669 0.050 5.930
0.669 0.050 5.930
0.648 0.680 5.715
0.648 0.680 5.715
0.694 -0.156 6.069
0.690 -0.012 5.961
0.713 -0.118 6.013
0.706 0.061 5.923
0.674 0.841 5.650
0.712 0.006 5.954
0.713 -0.014 5.961
0.734 -0.250 6.094
0.720 -0.023 5.965
0.752 -0.408 6.206
0.684 1.194 5.610
0.688 0.427 5.633
0.734 -0.020 5.968
0.748 -0.119 6.011
0.748 -0.119 6.011
0.757 -0.154 6.035
0.707 0.404 5.631
0.755 -0.090 6.003
0.769 -0.039 5.982
0.776 -0.146 6.013
0.714 0.551 5.531
0.747 0.286 5.703
0.741 1.199 5.607
0.763 0.281 5.714
0.746 1.230 5.578
0.746 1.245 5.570
0.744 0.512 5.537
0.744 0.512 5.537
0.751 0.580 5.514
0.764 1.210 5.602
0.764 1.210 5.602
0.762 0.546 5.512
0.895 -0.668 6.459
0.793 1.231 5.579
0.946 -0.849 6.482
0.835 0.375 5.629
0.860 0.166 5.778
0.895 -0.026 5.955
0.872 0.200 5.763
0.924 -0.259 6.083
0.838 0.564 5.516
0.946 -0.437 6.220
0.919 -0.038 5.960
0.914 0.073 5.912
0.874 0.454 5.587
0.863 0.580 5.514
0.936 -0.004 5.926
0.952 -0.129 6.010
0.954 -0.142 6.017
0.954 -0.142 6.017
0.941 0.103 5.906
0.949 -0.021 5.936
0.956 -0.060 5.963
0.953 0.010 5.922
0.953 0.010 5.922
0.962 -0.046 5.945
0.955 0.136 5.898
0.955 0.136 5.893
0.919 0.438 5.645
0.964 0.156 5.904
0.982 -0.120 5.994
0.926 0.531 5.593
0.993 -0.011 5.927
1.019 -0.230 6.062
1.004 -0.062 5.963
0.999 0.047 5.896
1.033 -0.170 6.044
1.031 -0.154 6.023
0.977 0.499 5.683
1.031 -0.092 5.973
0.978 0.560 5.635
0.978 0.560 5.635
1.026 -0.004 5.909
1.039 -0.083 5.979
1.056 -0.178 6.046
1.024 0.386 5.846
0.993 0.542 5.657
0.998 0.569 5.656
0.998 0.569 5.656
1.027 0.468 5.788
1.056 -0.029 5.927
1.012 0.543 5.677
1.058 0.104 5.874
1.107 -0.210 6.075
1.165 -0.498 6.304
1.083 0.543 5.793
1.089 0.683 5.794
1.109 0.413 5.877
1.096 0.579 5.793
1.100 0.774 5.758
1.125 0.437 5.864
1.118 0.570 5.799
1.128 0.550 5.812
1.159 -0.065 5.970
1.129 0.605 5.796
1.220 -0.396 6.262
1.162 0.246 5.934
1.167 -0.026 5.942
1.195 -0.176 6.079
1.134 0.780 5.764
1.130 0.882 5.730
1.250 -0.458 6.324
1.175 0.231 5.934
1.146 0.750 5.781
1.177 0.040 5.905
1.234 -0.309 6.189
1.151 0.843 5.757
1.209 -0.099 6.043
1.167 0.710 5.795
1.167 0.710 5.795
1.168 0.710 5.794
1.207 0.402 5.901
1.213 0.052 5.923
1.216 0.416 5.897
1.310 -0.432 6.351
1.199 0.840 5.787
1.274 -0.179 6.119
1.219 0.624 5.834
1.241 0.073 5.929
1.273 -0.079 6.065
1.237 0.469 5.870
1.237 0.469 5.870
1.272 0.078 5.933
1.272 0.078 5.933
1.270 0.131 5.921
1.249 0.812 5.813
1.249 0.812 5.813
1.291 -0.021 6.010
1.292 0.065 5.947
1.350 -0.184 6.168
1.284 0.733 5.842
1.339 -0.057 6.080
1.313 0.119 5.950
1.314 0.142 5.937
1.302 0.570 5.868
1.335 0.085 5.975
1.395 -0.114 6.152
1.333 0.711 5.850
1.360 0.376 5.948
1.350 0.484 5.895
1.356 0.444 5.914
1.418 0.024 6.084
1.400 0.153 6.001
1.395 0.336 5.978
1.433 0.133 6.035
1.433 0.193 6.015
1.433 0.325 5.998
1.425 0.449 5.929
1.471 0.347 6.010
1.500 0.187 6.092
1.457 1.262 5.911
1.456 1.260 5.903
1.460 1.292 5.896
1.475 0.464 5.951
1.472 1.271 5.893
1.528 0.259 6.099
1.520 0.331 6.057
1.480 1.228 5.895
1.486 1.209 5.904
1.549 0.524 6.003
1.588 0.530 6.042
1.588 0.530 6.042
1.763 0.074 6.706
1.732 0.292 6.567
1.594 0.561 6.032
1.594 0.561 6.032
1.764 0.172 6.666
1.745 0.271 6.589
1.598 0.576 6.033
1.601 0.546 6.044
1.761 0.263 6.613
1.786 0.124 6.693
1.795 0.256 6.635
1.807 0.170 6.648
1.807 0.170 6.648
1.828 0.249 6.618
1.812 0.354 6.533
1.674 1.322 6.019
1.675 1.334 6.020
1.856 0.206 6.648
1.849 0.265 6.613
1.849 0.265 6.613
1.785 0.695 6.372
1.697 1.353 6.031
1.795 0.662 6.382
1.818 0.521 6.457
1.723 1.094 6.113
1.723 1.094 6.113
1.723 1.094 6.113
1.875 0.244 6.628
1.827 0.597 6.434
1.833 0.561 6.456
1.880 0.269 6.621
1.828 0.621 6.432
1.734 1.311 6.085
1.726 1.367 6.052
1.752 1.124 6.129
1.737 1.358 6.068
1.898 0.338 6.601
1.764 1.336 6.112
1.784 1.351 6.122
1.883 0.883 6.385
1.907 0.866 6.444
1.915 0.854 6.467
1.851 1.291 6.238
1.897 0.952 6.361
1.878 1.211 6.278
1.872 1.283 6.251
1.961 1.041 6.465
2.068 1.075 6.644
2.082 0.919 6.676
2.081 1.065 6.647
2.095 0.956 6.676
2.092 1.020 6.655
2.095 1.040 6.657
2.116 0.955 6.688
2.098 1.471 6.603
2.121 1.002 6.672
2.601 1.549 7.869
2.487 1.653 7.474
2.677 1.408 7.915
2.684 1.492 7.932
2.581 1.643 7.446
2.581 1.643 7.446
2.806 1.601 7.920
2.806 1.601 7.920
2.826 1.615 7.917
2.826 1.615 7.917
2.827 1.632 7.909
2.827 1.632 7.909
2.884 1.585 7.957
2.927 1.618 7.994
3.091 1.415 8.387
2.984 1.569 8.092
3.088 1.429 8.373
2.988 1.618 8.024
3.013 1.617 8.035
3.043 1.563 8.055
3.040 1.624 8.020
3.040 1.624 8.020
3.029 1.669 7.991
3.047 1.594 8.038
3.137 1.395 8.253
3.047 1.654 8.010
3.047 1.654 8.010
3.155 1.388 8.257
3.056 1.705 7.981
3.076 1.675 8.007
3.090 1.599 8.023
3.090 1.599 8.023
3.097 1.566 8.017
3.210 1.358 8.248
3.140 1.722 8.004
3.254 1.346 8.246
3.200 1.406 8.104
3.169 1.738 8.001
3.169 1.738 8.001
3.226 1.413 8.108
3.295 1.407 8.179
3.523 1.530 8.440
3.514 1.795 8.387
-0.018 0.906 6.356
0.005 0.960 6.290
0.020 1.084 6.127
0.028 0.886 6.283
0.042 0.960 6.220
0.046 0.975 6.190
0.045 0.895 6.243
0.049 0.920 6.218
0.133 0.947 5.982
0.112 0.210 6.695
0.180 0.924 5.917
0.180 0.924 5.917
0.126 0.161 6.700
0.152 0.121 6.700
0.159 0.007 6.769
0.167 0.042 6.735
0.240 0.952 5.807
0.193 0.103 6.602
0.224 0.111 6.543
0.272 0.783 5.870
0.281 0.878 5.820
0.281 0.878 5.820
0.291 0.957 5.774
0.238 -0.080 6.651
0.255 -0.084 6.644
0.262 0.036 6.529
0.279 -0.015 6.535
0.289 0.090 6.393
0.284 -0.069 6.580
0.294 -0.087 6.574
0.347 0.932 5.721
0.306 -0.041 6.506
0.365 0.936 5.699
0.333 0.136 6.153
0.402 1.013 5.669
0.434 0.969 5.655
0.413 -0.021 6.162
0.471 0.926 5.662
0.483 1.019 5.651
0.464 -0.047 6.115
0.501 0.913 5.664
0.514 0.972 5.647
0.489 0.048 6.050
0.528 1.037 5.609
0.497 -0.076 6.155
0.499 0.013 6.053
0.501 -0.032 6.086
0.518 -0.004 6.054
0.527 -0.053 6.090
0.529 -0.022 6.066
0.566 0.953 5.592
0.539 0.009 6.050
0.572 0.940 5.644
0.546 -0.048 6.075
0.582 0.980 5.591
0.562 0.004 6.024
0.567 0.051 6.013
0.570 -0.076 6.077
0.601 0.965 5.577
0.616 0.982 5.575
0.637 -0.065 6.087
0.667 0.949 5.616
0.667 0.949 5.616
0.652 0.292 5.896
0.669 1.003 5.558
0.671 0.838 5.629
0.654 -0.052 6.043
0.654 -0.052 6.043
0.667 -0.002 6.004
0.674 0.049 5.974
0.716 0.945 5.609
0.696 -0.012 6.011
0.709 0.032 5.976
0.711 0.061 5.966
0.719 -0.015 6.011
0.734 -0.057 6.031
0.740 -0.020 6.018
0.750 0.064 5.949
0.773 -0.007 6.004
0.774 -0.039 6.016
0.813 0.156 5.891
0.840 1.012 5.601
0.844 0.034 5.939
0.900 -0.026 5.984
0.918 0.073 5.939
0.928 0.021 5.949
0.928 0.021 5.949
0.934 0.094 5.926
0.939 -0.004 5.947
0.946 0.103 5.936
0.949 0.068 5.929
0.953 -0.021 5.958
0.959 0.136 5.923
0.957 0.010 5.944
0.957 0.010 5.944
0.961 -0.061 5.998
0.969 0.156 5.931
0.971 0.157 5.946
0.978 0.013 5.952
1.006 0.108 5.893
1.006 0.108 5.894
1.006 0.108 5.894
1.034 0.093 5.887
1.034 0.093 5.887
1.055 0.352 5.919
1.045 0.045 5.903
1.057 -0.028 5.931
1.059 0.104 5.879
1.119 0.249 5.965
1.180 0.716 5.850
1.180 0.212 5.927
1.176 0.040 5.899
1.210 0.052 5.910
1.243 0.703 5.813
1.227 0.094 5.902
1.240 0.073 5.924
1.700 0.574 8.552
1.268 0.131 5.908
1.287 0.066 5.927
1.309 0.118 5.929
1.319 0.143 5.960
1.327 0.085 5.939
1.336 0.155 5.938
1.348 0.073 5.954
1.415 0.153 5.988
1.425 0.132 6.004
1.426 0.192 5.982
1.427 0.153 5.990
1.492 1.203 5.985
1.491 0.186 6.057
1.489 0.281 6.011
1.561 0.193 6.131
1.680 0.335 6.393
1.694 0.370 6.391
1.717 0.329 6.471
1.740 0.261 6.535
1.710 0.638 6.252
1.739 1.104 6.168
1.739 1.104 6.168
1.739 1.104 6.168
1.742 1.086 6.161
1.812 0.290 6.528
1.785 1.111 6.208
1.785 1.111 6.208
1.819 0.417 6.453
1.839 0.382 6.486
1.835 1.121 6.294
1.835 1.121 6.294
1.835 1.121 6.294
1.847 0.240 6.529
1.834 0.433 6.428
1.834 0.433 6.428
1.851 0.322 6.511
1.842 0.457 6.435
1.856 0.412 6.448
1.867 1.099 6.344
1.867 1.099 6.344
1.866 1.162 6.316
1.872 0.333 6.513
1.872 0.321 6.505
1.890 0.495 6.500
1.890 0.495 6.500
1.894 1.299 6.325
1.896 1.223 6.338
2.068 1.039 6.668
2.068 1.039 6.668
2.094 1.020 6.662
2.514 1.301 7.885
2.538 1.451 7.874
2.548 1.477 7.889
0.770 0.429 1.666
2.579 1.521 7.899
2.615 1.557 7.912
2.619 1.536 7.928
2.623 1.354 7.921
2.645 1.419 7.886
2.671 1.486 7.963
2.683 1.472 7.954
2.690 1.495 7.950
2.705 1.534 7.948
2.717 1.514 7.981
2.607 1.659 7.522
2.607 1.659 7.522
2.767 1.549 7.962
2.793 1.619 7.965
2.801 1.565 7.982
2.826 1.613 7.978
2.841 1.623 7.959
2.841 1.623 7.959
2.849 1.645 7.970
2.834 1.671 7.897
2.995 1.541 8.381
2.924 1.589 8.022
2.968 1.504 8.148
2.935 1.622 8.014
3.024 1.504 8.287
2.954 1.606 8.030
2.953 1.550 8.023
3.009 1.493 8.179
3.004 1.501 8.126
3.057 1.399 8.293
2.994 1.621 8.040
3.075 1.394 8.299
3.075 1.394 8.299
3.034 1.548 8.051
3.062 1.662 8.051
3.062 1.662 8.051
3.222 1.346 8.105
0.137 0.812 6.161
0.114 0.208 6.622
0.128 0.290 6.558
0.128 0.290 6.558
0.149 0.189 6.583
0.159 0.071 6.607
0.214 0.835 6.028
0.212 0.558 6.051
0.212 0.558 6.051
0.169 0.040 6.607
0.181 0.143 6.498
0.197 0.347 6.352
0.194 0.101 6.497
0.247 0.631 6.023
0.238 0.263 6.330
0.271 0.799 5.986
0.276 0.875 5.946
0.282 0.240 6.192
0.314 0.682 5.960
0.317 0.754 5.943
0.317 0.754 5.943
0.332 0.164 6.089
0.334 0.279 6.089
0.335 0.200 6.118
0.354 0.719 5.911
0.356 0.122 6.054
0.385 0.927 5.794
0.368 0.164 6.044
0.378 0.111 6.033
0.416 0.048 5.983
0.433 0.898 5.772
0.433 0.830 5.808
0.434 0.805 5.817
0.431 0.186 6.000
0.451 0.935 5.749
0.443 0.510 5.904
0.448 0.095 5.972
0.451 0.029 5.953
0.474 0.941 5.752
0.485 1.029 5.706
0.474 0.316 5.994
0.490 0.892 5.741
0.483 0.289 6.001
0.485 0.046 5.945
0.489 0.143 5.963
0.504 0.923 5.727
0.503 0.841 5.740
0.496 0.012 5.959
0.510 0.695 5.787
0.517 0.985 5.719
0.510 0.157 5.959
0.526 0.815 5.745
0.517 0.346 5.968
0.531 1.021 5.687
0.515 -0.005 5.973
0.528 0.691 5.792
0.533 0.760 5.774
0.523 -0.052 5.989
0.525 -0.023 5.965
0.540 0.886 5.712
0.531 0.244 5.998
0.531 0.244 5.998
0.543 0.860 5.722
0.543 0.860 5.722
0.533 0.337 5.974
0.534 0.008 5.929
0.549 0.961 5.692
0.538 0.036 5.931
0.549 0.222 5.984
0.562 0.685 5.787
0.556 0.087 5.933
0.558 0.003 5.946
0.572 0.943 5.660
0.585 0.988 5.635
0.575 0.308 5.970
0.604 0.975 5.630
0.607 0.070 5.923
0.621 0.831 5.674
0.627 0.438 5.767
0.650 0.677 5.683
0.650 0.677 5.683
0.650 0.291 5.873
0.669 0.952 5.633
0.669 0.952 5.633
0.663 -0.002 5.936
0.673 1.013 5.613
0.670 0.048 5.907
0.696 -0.033 5.951
0.704 0.031 5.910
0.706 0.072 5.884
0.714 -0.016 5.938
0.729 0.096 5.886
0.745 0.063 5.892
0.761 1.208 5.581
0.761 1.208 5.581
0.768 -0.007 5.938
0.809 0.155 5.855
0.815 0.860 5.630
0.820 0.030 5.907
0.836 -0.061 5.959
0.838 1.009 5.585
0.888 0.365 5.639
0.893 0.193 5.758
0.914 0.072 5.902
0.931 0.093 5.897
0.937 -0.004 5.922
0.941 0.102 5.894
0.945 0.067 5.892
0.949 0.938 5.631
0.955 -0.060 5.947
0.956 0.135 5.895
0.958 0.136 5.911
0.962 -0.045 5.931
0.965 0.155 5.896
0.973 0.321 5.824
1.002 0.107 5.858
1.002 0.107 5.858
1.010 -0.021 5.918
1.024 -0.074 5.972
1.031 0.093 5.869
1.043 0.045 5.886
1.046 -0.063 5.936
1.054 -0.028 5.909
1.052 0.837 5.740
1.058 0.103 5.877
1.084 0.170 5.933
1.076 0.613 5.749
1.076 0.613 5.749
1.111 0.177 5.910
1.113 0.527 5.828
1.138 0.058 5.894
1.169 0.198 5.931
1.178 0.040 5.912
1.182 0.168 5.920
1.188 0.073 5.903
1.188 0.073 5.903
1.182 0.945 5.734
1.182 0.945 5.734
1.212 0.052 5.917
1.228 0.094 5.911
1.241 0.074 5.930
1.246 0.705 5.827
1.270 0.131 5.923
1.294 0.066 5.964
1.315 0.119 5.967
1.338 0.086 6.006
1.356 0.123 5.986
1.378 0.125 6.003
1.384 0.168 5.991
1.426 0.155 6.048
1.429 0.216 6.028
1.437 0.134 6.066
1.436 0.154 6.035
1.488 -0.248 6.434
1.437 1.293 5.855
1.454 0.253 6.038
1.428 1.191 5.743
1.451 1.253 5.863
1.467 0.231 6.053
1.499 -0.080 6.302
1.466 1.262 5.846
1.474 1.220 5.851
1.504 0.189 6.121
1.518 0.101 6.185
1.518 0.114 6.176
1.488 1.215 5.848
1.504 1.212 5.868
1.533 0.261 6.122
1.588 0.458 6.095
1.699 0.116 6.660
1.658 0.342 6.383
1.713 0.214 6.634
1.712 0.376 6.476
1.746 0.251 6.652
1.745 0.337 6.598
1.755 0.275 6.649
1.778 0.152 6.767
1.772 0.267 6.676
1.665 1.322 5.961
1.798 0.128 6.767
1.735 0.527 6.289
1.805 0.259 6.690
1.827 0.146 6.784
1.706 1.321 6.003
1.706 1.321 6.003
1.761 0.564 6.366
1.786 0.384 6.517
1.724 1.299 6.027
1.829 0.279 6.689
1.726 1.328 6.016
1.726 1.328 6.016
1.726 1.345 6.006
1.747 1.338 6.035
1.781 1.317 6.092
1.874 0.391 6.632
1.889 0.248 6.706
1.821 0.933 6.285
1.821 0.933 6.285
1.888 0.331 6.665
1.864 0.464 6.524
1.854 1.242 6.240
1.847 1.308 6.172
1.843 1.351 6.145
1.862 1.274 6.201
1.875 1.297 6.214
1.912 1.361 6.263
1.978 1.091 6.477
2.085 1.457 6.540
2.523 1.307 7.916
2.523 1.307 7.916
2.527 1.273 7.933
2.535 1.469 7.843
2.558 1.489 7.835
2.561 1.509 7.838
2.582 1.316 7.915
2.595 1.494 7.867
2.598 1.565 7.843
2.646 1.382 7.966
2.635 1.505 7.888
2.662 1.430 7.944
2.658 1.478 7.917
2.680 1.470 7.943
2.680 1.470 7.943
2.681 1.490 7.919
2.692 1.526 7.904
2.682 1.630 7.852
2.571 1.610 7.406
2.724 1.599 7.874
2.747 1.535 7.897
2.764 1.600 7.871
2.783 1.554 7.923
2.815 1.606 7.879
2.815 1.606 7.879
2.823 1.594 7.901
3.005 1.546 8.410
2.884 1.584 7.955
2.660 1.628 7.104
2.908 1.580 7.974
2.982 1.512 8.189
2.884 1.657 7.820
2.672 1.617 7.072
2.944 1.600 8.001
2.903 1.686 7.841
2.987 1.571 8.126
2.912 1.654 7.845
3.102 1.422 8.428
3.102 1.422 8.428
2.981 1.612 8.000
3.095 1.433 8.401
3.016 1.552 8.076
3.110 1.412 8.404
3.110 1.412 8.404
3.002 1.609 8.001
3.018 1.568 8.007
3.040 1.490 8.059
3.040 1.559 8.047
3.016 1.659 7.949
3.035 1.620 8.006
3.033 1.584 7.997
3.067 1.483 8.089
3.030 1.642 7.957
3.030 1.642 7.957
3.038 1.591 7.957
3.142 1.398 8.278
3.162 1.392 8.291
3.162 1.392 8.291
3.079 1.591 7.992
3.079 1.591 7.992
3.090 1.561 8.001
3.054 1.741 7.868
3.052 1.700 7.853
3.079 1.687 7.929
3.187 1.384 8.262
3.123 1.456 8.046
3.075 1.747 7.838
3.075 1.747 7.838
3.225 1.365 8.301
3.187 1.403 8.175
3.090 1.738 7.842
3.152 1.725 7.952
3.264 1.351 8.286
3.155 1.603 7.755
3.155 1.603 7.755
3.153 1.619 7.735
3.222 1.794 7.939
3.240 1.687 7.861
3.358 1.774 8.070
3.476 1.689 8.384
3.473 1.716 8.371
3.490 1.740 8.402
3.525 1.538 8.506
3.501 1.709 8.403
3.501 1.709 8.403
3.491 1.781 8.336
3.491 1.781 8.336
3.533 1.782 8.325
3.482 1.865 8.163
3.707 1.535 8.607
3.671 1.578 8.489
3.671 1.578 8.489
3.577 1.729 8.107
