0.204 1.206 2.008
0.213 1.242 1.931
0.245 0.976 1.979
0.256 1.226 1.820
0.271 1.231 1.803
0.288 1.228 1.799
0.384 1.380 1.803
0.382 0.981 1.810
0.410 1.190 1.813
0.419 0.943 1.897
0.418 1.195 1.799
0.441 1.057 1.879
0.446 1.162 1.815
0.450 1.177 1.817
0.483 1.426 1.829
0.450 1.190 1.807
0.463 1.183 1.806
0.464 1.191 1.799
0.468 1.184 1.801
0.481 1.154 1.796
0.489 1.176 1.784
0.471 1.181 1.733
0.560 1.100 1.959
0.553 1.121 1.932
0.577 1.076 1.968
0.582 1.096 1.954
0.585 1.087 1.958
0.628 1.099 1.936
0.740 1.625 2.053
0.613 1.098 1.895
0.592 1.361 1.794
0.556 1.318 1.727
0.645 1.059 1.953
0.621 1.090 1.891
0.622 1.087 1.893
0.625 1.093 1.891
0.471 0.419 1.713
0.602 1.150 1.829
0.599 1.154 1.819
0.598 1.396 1.752
0.639 1.087 1.888
0.643 1.080 1.889
0.650 1.091 1.881
0.657 1.078 1.890
0.649 1.132 1.858
0.650 1.121 1.858
0.690 1.044 1.938
0.656 1.125 1.856
0.656 1.125 1.856
0.656 1.129 1.854
0.664 1.095 1.874
0.664 1.118 1.853
0.664 1.118 1.853
0.631 1.388 1.740
0.671 1.107 1.859
0.684 1.086 1.882
0.676 1.098 1.859
0.674 1.120 1.849
0.693 1.064 1.890
0.679 1.098 1.855
0.688 1.085 1.870
0.711 1.034 1.911
0.694 1.074 1.869
0.695 1.069 1.869
0.717 1.010 1.915
0.714 1.027 1.907
0.723 1.007 1.916
0.704 1.102 1.866
0.713 1.052 1.872
0.718 1.056 1.870
0.749 0.913 1.946
0.742 0.977 1.922
0.713 1.069 1.854
0.762 0.866 1.967
0.708 1.119 1.835
0.724 1.046 1.873
0.720 1.062 1.857
0.706 1.124 1.816
0.720 1.104 1.842
0.725 1.060 1.855
0.727 1.054 1.858
0.650 1.151 1.714
0.770 0.866 1.953
0.650 1.153 1.708
0.732 1.056 1.853
0.739 1.037 1.867
0.717 1.333 1.759
0.691 1.142 1.736
0.691 1.142 1.736
0.691 1.145 1.731
0.794 0.866 1.933
0.730 1.329 1.760
0.772 1.028 1.863
0.810 0.846 1.947
0.810 0.846 1.947
0.778 1.077 1.847
0.723 1.137 1.699
0.783 1.110 1.763
0.830 1.007 1.841
0.881 0.969 1.867
0.873 1.009 1.844
0.878 0.984 1.851
0.837 1.100 1.775
0.837 1.100 1.775
0.854 1.081 1.799
0.838 1.107 1.772
0.868 1.035 1.819
0.842 1.101 1.773
0.883 0.984 1.838
0.847 1.101 1.770
0.905 0.977 1.839
0.156 1.105 1.633
0.249 0.499 2.716
0.168 1.114 1.692
0.153 1.094 1.603
0.068 0.595 1.477
0.249 0.511 2.649
0.161 0.967 1.737
0.153 0.480 2.046
0.126 0.911 1.549
0.190 1.287 1.642
0.161 1.103 1.607
0.161 1.103 1.607
0.187 1.281 1.618
0.293 0.498 2.834
0.227 0.336 2.566
0.164 1.106 1.599
0.177 1.101 1.675
0.168 1.114 1.604
0.150 0.720 1.798
0.229 0.517 2.392
0.229 0.517 2.392
0.291 0.350 2.851
0.291 0.350 2.851
0.125 0.893 1.501
0.151 0.935 1.609
0.176 0.811 1.832
0.192 0.831 1.910
0.224 0.532 2.303
0.171 1.114 1.581
0.160 1.081 1.546
0.178 1.104 1.628
0.240 1.055 2.010
0.087 0.616 1.462
0.331 0.438 2.925
0.081 0.605 1.431
0.206 0.372 2.274
0.080 0.614 1.400
0.161 0.717 1.764
0.110 0.619 1.550
0.185 1.093 1.627
0.321 0.383 2.836
0.321 0.383 2.836
0.163 0.923 1.621
0.191 0.935 1.756
0.144 0.733 1.648
0.144 0.733 1.648
0.089 0.597 1.445
0.190 1.102 1.638
0.174 1.094 1.549
0.181 0.887 1.717
0.187 1.113 1.597
0.159 0.930 1.571
0.193 1.095 1.635
0.143 0.683 1.645
0.195 1.128 1.614
0.194 1.121 1.614
0.208 1.120 1.686
0.106 0.627 1.484
0.174 0.963 1.608
0.211 1.100 1.704
0.205 1.096 1.674
0.226 0.993 1.844
0.121 0.643 1.531
0.193 1.111 1.591
0.192 1.096 1.596
0.192 1.096 1.596
0.165 0.731 1.682
0.202 1.108 1.635
0.115 0.608 1.510
0.180 0.934 1.623
0.228 0.530 2.110
0.203 1.115 1.615
0.403 0.393 3.011
0.201 0.913 1.717
0.184 1.005 1.574
0.150 0.686 1.596
0.195 1.032 1.603
0.467 0.313 3.331
0.408 0.434 2.975
0.408 0.434 2.975
0.221 1.118 1.671
0.419 0.467 2.995
0.241 1.127 1.755
0.203 1.109 1.586
0.148 0.703 1.564
0.278 1.047 1.974
0.209 1.041 1.648
0.192 1.023 1.578
0.211 1.103 1.624
0.193 0.995 1.601
0.481 0.443 3.267
0.194 0.964 1.617
0.212 1.117 1.609
0.191 1.005 1.567
0.137 0.677 1.509
0.211 0.962 1.679
0.186 0.993 1.548
0.221 1.108 1.643
0.213 0.901 1.721
0.151 0.723 1.536
0.208 1.015 1.627
0.182 0.922 1.562
0.215 1.112 1.598
0.205 1.032 1.598
0.205 1.032 1.598
0.204 1.025 1.596
0.215 1.110 1.586
0.233 1.106 1.671
0.580 0.452 3.571
0.252 0.615 2.025
0.211 0.962 1.646
0.205 0.999 1.587
0.256 0.981 1.821
0.145 0.671 1.504
0.210 1.028 1.591
0.165 0.673 1.581
0.254 0.972 1.808
0.207 1.085 1.541
0.276 1.365 1.689
0.218 1.098 1.578
0.217 0.875 1.689
0.219 0.893 1.688
0.191 0.921 1.551
0.214 0.938 1.639
0.235 1.049 1.661
0.244 1.043 1.702
0.159 0.700 1.519
0.225 0.961 1.658
0.166 0.577 1.607
0.247 1.086 1.687
0.366 1.390 2.038
0.243 1.025 1.699
0.223 0.856 1.702
0.237 1.091 1.639
0.232 0.950 1.688
0.212 0.672 1.745
0.215 0.856 1.666
0.215 0.856 1.666
0.220 0.957 1.633
0.230 0.874 1.717
0.238 1.106 1.627
0.243 1.133 1.633
0.178 0.735 1.563
0.223 0.873 1.677
0.184 0.998 1.450
0.238 1.109 1.616
0.201 0.661 1.690
0.230 0.870 1.704
0.230 0.870 1.704
0.275 1.087 1.774
0.210 0.936 1.586
0.193 0.739 1.606
0.239 1.068 1.628
0.210 1.071 1.508
0.177 0.682 1.566
0.240 1.053 1.632
0.198 0.686 1.641
0.199 0.661 1.657
0.199 0.661 1.657
0.264 1.102 1.702
0.588 0.344 3.399
0.189 0.668 1.602
0.253 1.066 1.662
0.184 0.739 1.543
0.252 1.125 1.629
0.229 0.854 1.668
0.194 0.712 1.588
0.202 0.683 1.631
0.188 0.718 1.556
0.246 1.102 1.594
0.252 0.895 1.715
0.252 0.895 1.715
0.238 1.001 1.608
0.206 0.669 1.642
0.213 0.682 1.658
0.234 0.656 1.752
0.198 0.695 1.591
0.208 0.660 1.643
0.221 0.653 1.696
0.226 0.949 1.571
0.270 1.102 1.671
0.270 1.102 1.671
0.188 0.707 1.537
0.242 0.954 1.626
0.308 1.362 1.685
0.260 1.119 1.613
0.277 1.113 1.678
0.163 0.683 1.438
0.200 0.655 1.593
0.193 0.687 1.550
0.189 0.678 1.537
0.206 0.741 1.574
0.228 0.959 1.555
0.240 0.897 1.628
0.225 0.948 1.546
0.332 1.401 1.745
0.236 0.928 1.595
0.281 1.082 1.689
0.121 0.508 1.344
0.504 0.228 2.908
0.291 0.801 1.842
0.252 1.091 1.565
0.252 1.091 1.565
0.287 0.968 1.751
0.217 0.641 1.634
0.265 0.877 1.702
0.333 1.116 1.847
0.218 0.619 1.642
0.288 1.102 1.683
0.288 1.102 1.683
0.283 1.089 1.669
0.304 1.134 1.725
0.316 1.107 1.768
0.278 1.125 1.622
0.297 1.024 1.727
0.307 1.084 1.735
0.274 1.114 1.600
0.263 1.097 1.565
0.220 0.678 1.587
0.283 1.094 1.634
0.204 0.477 1.611
0.204 0.477 1.611
0.233 1.047 1.469
0.290 1.068 1.659
0.314 1.060 1.745
0.283 1.117 1.612
0.252 0.884 1.596
0.295 1.126 1.644
0.301 1.026 1.705
0.324 1.098 1.755
0.367 1.126 1.888
0.302 1.090 1.676
0.243 0.673 1.639
0.243 0.673 1.639
0.288 1.111 1.610
0.288 1.111 1.610
0.318 1.051 1.737
0.195 0.469 1.546
0.284 1.012 1.631
0.214 0.489 1.600
0.211 0.468 1.598
0.326 1.051 1.758
0.254 0.659 1.670
0.374 1.076 1.896
0.313 1.115 1.674
0.454 0.325 2.463
0.326 1.282 1.645
0.410 1.426 1.868
0.301 1.087 1.639
0.301 1.087 1.639
0.432 1.467 1.926
0.336 1.335 1.651
0.470 0.322 2.500
0.341 1.083 1.757
0.313 1.106 1.656
0.334 1.108 1.721
0.334 1.117 1.715
0.238 0.754 1.537
0.352 1.314 1.695
0.375 1.101 1.853
0.321 1.145 1.656
0.335 1.153 1.695
0.255 0.525 1.675
0.313 1.096 1.646
0.337 1.100 1.719
0.361 1.138 1.779
0.337 1.318 1.632
0.363 1.114 1.794
0.363 1.114 1.794
0.311 1.111 1.627
0.226 0.469 1.593
0.359 1.122 1.775
0.356 1.036 1.796
0.288 0.867 1.640
0.313 1.123 1.623
0.331 1.103 1.689
0.331 1.103 1.689
0.308 1.100 1.617
0.357 0.726 1.916
0.430 1.140 1.986
0.388 1.126 1.860
0.388 1.126 1.860
0.283 1.056 1.547
0.323 0.913 1.731
0.369 1.098 1.809
0.255 0.763 1.567
0.329 1.058 1.693
0.498 0.641 2.389
0.264 0.775 1.588
0.318 1.075 1.640
0.381 1.108 1.829
0.285 0.932 1.591
0.285 0.932 1.591
0.298 0.950 1.624
0.373 1.106 1.799
0.297 1.092 1.564
0.315 1.091 1.621
0.315 1.091 1.621
0.325 1.345 1.557
0.359 1.099 1.751
0.315 1.094 1.609
0.323 0.883 1.711
0.305 0.951 1.627
0.248 0.482 1.619
0.248 0.482 1.619
0.369 1.072 1.779
0.369 1.072 1.779
0.303 0.500 1.776
0.359 1.099 1.724
0.336 1.134 1.638
0.354 1.082 1.710
0.354 1.082 1.710
0.290 1.033 1.533
0.339 1.091 1.653
0.340 1.102 1.651
0.306 0.904 1.617
0.349 0.919 1.740
0.323 1.089 1.603
0.334 1.107 1.627
0.330 1.082 1.617
0.341 0.885 1.717
0.441 1.171 1.917
0.441 1.171 1.917
0.352 1.086 1.680
0.366 0.920 1.780
0.393 1.073 1.803
0.393 1.073 1.803
0.380 1.126 1.746
0.380 1.126 1.746
0.463 1.044 2.020
0.385 0.549 1.954
0.348 1.117 1.649
0.430 1.049 1.917
0.405 1.068 1.834
0.372 1.021 1.751
0.697 0.746 2.814
0.335 0.896 1.685
0.406 0.536 2.018
0.406 0.536 2.018
0.372 1.119 1.715
0.361 1.075 1.697
0.347 0.911 1.709
0.320 0.952 1.614
0.340 0.980 1.660
0.355 1.125 1.655
0.362 1.374 1.587
0.373 1.067 1.725
0.373 1.067 1.725
0.356 1.084 1.666
0.384 1.106 1.741
0.363 1.032 1.704
0.330 1.080 1.588
0.747 0.383 3.038
0.355 1.124 1.647
0.396 1.307 1.705
0.336 0.890 1.666
0.359 1.106 1.660
0.347 1.090 1.630
0.352 1.132 1.629
0.375 1.079 1.713
0.381 1.400 1.622
0.419 0.499 2.027
0.339 1.069 1.606
0.431 1.095 1.865
0.343 1.110 1.604
0.361 1.085 1.661
0.341 0.870 1.674
0.387 1.111 1.724
0.403 1.033 1.795
0.477 1.117 1.979
0.356 1.100 1.637
0.624 0.850 2.484
0.718 0.348 2.914
0.346 0.944 1.652
0.348 1.112 1.604
0.438 1.084 1.864
0.383 0.961 1.745
0.351 1.109 1.605
0.391 1.133 1.709
0.372 1.093 1.666
0.313 0.793 1.593
0.364 1.110 1.636
0.355 1.113 1.605
0.751 0.787 2.813
0.416 1.128 1.766
0.457 1.407 1.792
0.374 1.107 1.655
0.411 0.857 1.832
0.301 0.723 1.571
0.888 0.366 3.297
0.374 0.898 1.708
0.367 0.511 1.809
0.424 1.001 1.812
0.424 1.001 1.812
0.706 0.373 2.775
0.518 0.468 2.232
0.388 1.119 1.673
0.420 1.131 1.756
0.396 1.075 1.706
0.396 1.075 1.706
0.764 0.254 2.959
0.788 0.214 3.030
0.448 1.371 1.753
0.448 1.371 1.753
0.388 1.048 1.688
0.774 0.186 3.000
0.393 1.034 1.707
0.492 1.037 1.975
0.382 1.106 1.653
0.356 1.099 1.582
0.374 1.113 1.624
0.381 1.038 1.664
0.365 1.013 1.623
0.401 1.129 1.682
0.494 0.453 2.130
0.475 1.427 1.789
0.498 1.066 1.952
0.412 1.032 1.730
0.377 1.025 1.638
1.000 0.888 3.330
1.000 0.888 3.330
0.386 1.038 1.654
0.394 1.090 1.661
0.452 1.379 1.727
0.809 0.691 2.869
0.391 1.095 1.646
0.677 1.062 2.409
0.387 1.109 1.629
0.400 1.089 1.670
0.544 0.984 2.077
0.355 1.082 1.553
0.413 1.025 1.718
0.413 1.025 1.718
0.407 1.121 1.673
0.399 1.063 1.666
0.395 0.898 1.701
0.401 1.104 1.656
1.077 1.027 3.429
1.077 1.027 3.429
0.397 0.893 1.703
0.448 0.347 1.992
0.484 0.944 1.910
0.390 1.117 1.614
0.398 1.083 1.644
0.452 1.345 1.705
0.493 1.078 1.886
0.398 1.069 1.644
0.412 1.094 1.672
0.458 0.901 1.843
0.424 1.116 1.690
0.407 1.113 1.649
0.421 0.988 1.714
0.402 1.108 1.632
0.491 0.984 1.891
0.385 1.102 1.591
0.517 1.018 1.940
0.989 0.822 3.180
0.396 1.107 1.610
0.391 1.110 1.596
0.430 1.047 1.710
0.405 1.036 1.649
0.426 0.917 1.730
0.439 1.045 1.728
0.405 1.081 1.633
0.423 1.140 1.662
0.492 1.079 1.847
0.420 1.085 1.665
0.425 1.369 1.596
0.425 1.369 1.596
0.538 0.606 2.086
0.479 0.930 1.850
0.515 1.042 1.904
0.476 1.053 1.802
0.533 1.106 1.928
0.455 1.075 1.742
0.398 1.099 1.592
0.484 1.086 1.804
0.507 1.163 1.838
0.439 1.068 1.697
0.427 1.060 1.668
0.433 0.894 1.726
0.416 1.082 1.636
0.431 1.110 1.664
0.404 1.061 1.610
0.405 1.098 1.600
0.421 1.070 1.645
0.522 1.000 1.910
1.047 0.889 3.211
0.470 1.059 1.763
0.407 1.107 1.596
0.508 1.092 1.842
0.437 1.137 1.658
0.437 1.130 1.659
0.515 1.059 1.862
0.592 0.981 2.066
0.966 0.791 3.013
0.966 0.791 3.013
0.490 1.017 1.811
0.520 1.002 1.887
0.921 0.811 2.894
0.413 1.109 1.600
0.551 1.102 1.933
0.659 0.337 2.387
0.480 1.104 1.760
0.829 0.721 2.689
0.548 1.018 1.941
0.517 1.126 1.838
0.407 1.095 1.583
0.410 1.066 1.596
0.954 0.932 2.921
0.509 1.039 1.838
0.509 1.039 1.838
0.444 1.127 1.661
0.519 1.083 1.851
0.454 1.109 1.685
0.490 1.135 1.762
0.507 1.390 1.738
0.485 1.107 1.755
0.566 1.464 1.856
0.531 1.008 1.885
0.521 1.001 1.861
0.509 1.138 1.800
0.434 1.122 1.626
0.526 1.078 1.853
0.539 1.428 1.794
0.495 0.995 1.800
0.488 1.346 1.695
0.525 1.405 1.767
0.562 1.063 1.937
0.562 1.063 1.937
0.434 1.105 1.628
0.530 1.107 1.850
0.498 1.044 1.785
0.259 0.465 1.372
0.642 0.935 2.145
0.494 1.047 1.774
0.683 0.334 2.389
0.452 1.115 1.661
1.109 0.908 3.230
0.464 1.089 1.691
0.541 1.078 1.873
0.610 0.890 2.074
0.590 0.960 2.013
0.416 1.005 1.597
0.532 1.076 1.847
0.512 1.035 1.809
0.460 1.115 1.668
0.540 1.049 1.867
0.540 1.049 1.867
0.444 1.113 1.628
0.526 1.079 1.825
0.493 1.111 1.741
0.437 1.099 1.615
0.519 1.359 1.739
0.645 0.931 2.130
0.665 0.913 2.177
0.548 1.047 1.874
0.585 1.086 1.946
0.645 0.954 2.114
0.428 1.089 1.586
1.400 0.867 3.825
0.620 0.886 2.060
0.606 0.935 2.015
0.458 1.104 1.642
0.458 1.104 1.642
0.477 1.102 1.684
1.308 0.603 3.676
0.528 1.382 1.733
0.576 1.011 1.927
0.288 0.396 1.425
0.512 1.053 1.772
0.489 1.099 1.708
0.485 1.315 1.648
0.440 1.101 1.594
0.462 1.114 1.640
0.558 1.120 1.852
0.524 1.055 1.790
0.447 1.102 1.609
0.531 1.068 1.800
0.499 0.948 1.757
0.538 1.017 1.826
0.567 1.425 1.794
0.390 0.395 1.636
0.492 1.117 1.694
0.539 1.123 1.795
0.496 1.107 1.701
0.479 1.120 1.661
0.470 1.105 1.645
0.470 1.105 1.645
0.569 1.073 1.869
0.644 1.051 2.036
0.481 1.124 1.663
0.491 1.122 1.685
0.516 1.121 1.738
0.558 1.072 1.841
0.764 0.873 2.334
0.669 0.730 2.156
0.669 0.730 2.156
0.456 1.109 1.606
0.547 1.068 1.814
0.561 1.033 1.850
0.585 1.073 1.891
0.572 1.072 1.864
0.479 1.103 1.652
0.499 1.313 1.648
0.466 1.113 1.620
0.466 1.113 1.620
0.600 1.038 1.924
0.563 1.021 1.846
0.563 1.021 1.846
0.494 1.101 1.675
0.583 1.081 1.868
0.542 1.055 1.784
0.497 1.362 1.621
0.475 1.115 1.629
0.601 1.064 1.909
0.564 1.068 1.828
0.533 1.085 1.756
0.545 1.109 1.775
0.674 0.969 2.074
0.468 1.104 1.603
0.548 1.116 1.768
0.605 1.049 1.903
0.739 0.881 2.224
0.531 1.126 1.730
0.581 1.060 1.847
0.468 1.079 1.602
0.468 1.079 1.602
0.468 1.079 1.602
0.536 1.116 1.737
0.694 0.847 2.126
0.644 1.043 1.976
0.337 0.536 1.440
0.542 1.129 1.740
0.587 1.077 1.846
0.605 1.064 1.886
0.535 1.093 1.732
0.275 0.504 1.314
0.588 1.071 1.845
0.583 1.052 1.837
0.524 1.146 1.692
0.564 1.106 1.785
0.651 1.030 1.978
0.584 1.016 1.839
0.585 1.069 1.830
0.628 1.024 1.928
0.497 1.102 1.639
0.577 1.055 1.811
0.584 1.107 1.815
0.597 1.067 1.847
0.322 0.539 1.391
0.647 1.083 1.943
0.549 1.087 1.740
0.519 1.109 1.674
0.589 1.064 1.825
0.497 1.080 1.633
0.531 1.135 1.690
0.649 1.079 1.942
0.572 1.107 1.776
0.592 1.141 1.811
0.533 1.093 1.700
0.547 1.111 1.723
0.563 1.084 1.761
0.563 1.084 1.761
0.584 1.040 1.808
0.711 0.844 2.104
0.619 1.074 1.868
0.660 1.010 1.959
0.563 1.019 1.761
0.581 1.100 1.781
0.667 0.960 1.980
0.593 1.119 1.799
0.591 1.386 1.741
0.680 1.440 1.907
0.527 1.129 1.659
0.592 1.119 1.791
0.545 1.109 1.699
0.534 1.117 1.674
0.601 1.057 1.819
0.581 1.098 1.770
1.080 0.422 2.896
0.612 1.053 1.838
0.524 1.123 1.647
0.590 1.449 1.712
0.634 1.073 1.873
0.611 1.120 1.815
0.822 0.712 2.311
0.563 1.117 1.720
0.524 1.086 1.650
0.586 1.314 1.727
0.526 1.117 1.646
0.622 1.055 1.844
0.566 1.163 1.713
0.791 0.670 2.249
0.652 0.931 1.924
0.529 1.119 1.644
0.568 1.125 1.717
0.621 1.068 1.830
0.620 1.028 1.834
0.773 1.033 2.129
0.583 1.129 1.741
0.948 0.443 2.583
0.738 1.044 2.055
0.528 1.114 1.633
0.670 1.088 1.913
0.545 1.113 1.665
0.549 1.121 1.669
0.577 1.117 1.720
0.552 1.134 1.668
0.626 1.100 1.816
1.120 0.456 2.887
0.613 1.096 1.790
0.613 1.096 1.790
0.663 0.855 1.929
0.550 1.128 1.661
1.336 0.402 3.300
0.668 0.976 1.908
0.687 0.968 1.946
0.751 1.085 2.045
1.071 0.446 2.773
1.071 0.446 2.773
0.536 1.112 1.629
0.542 1.108 1.640
0.681 1.058 1.913
0.652 1.112 1.848
0.582 1.140 1.710
0.658 1.091 1.863
0.585 1.119 1.719
0.673 1.070 1.893
0.588 1.132 1.720
0.615 1.380 1.724
0.615 1.128 1.768
1.141 0.415 2.892
0.719 0.988 1.988
0.615 1.121 1.768
0.615 1.121 1.768
0.648 1.031 1.843
0.550 1.116 1.643
0.615 1.130 1.762
0.680 0.711 1.959
0.587 1.124 1.708
0.650 1.410 1.772
1.043 0.424 2.684
0.577 1.106 1.687
0.664 1.163 1.839
0.556 1.064 1.656
0.670 1.037 1.873
0.638 1.081 1.803
0.638 1.081 1.803
0.584 1.119 1.695
0.708 0.748 1.991
0.659 1.047 1.844
0.597 1.115 1.717
0.654 1.114 1.823
0.613 1.122 1.745
0.613 1.122 1.745
0.649 1.061 1.821
0.646 1.070 1.813
0.745 0.898 2.025
0.745 0.898 2.025
0.554 1.112 1.633
0.645 1.134 1.797
0.686 1.077 1.882
0.594 1.096 1.708
0.773 0.728 2.100
0.565 1.124 1.647
0.579 1.108 1.673
0.588 1.121 1.688
0.588 1.121 1.688
0.660 1.136 1.817
0.679 1.089 1.860
0.647 1.144 1.791
0.643 1.071 1.795
0.645 1.071 1.796
0.638 1.109 1.773
0.660 1.064 1.822
0.831 0.641 2.205
0.602 1.118 1.703
0.602 1.118 1.703
0.624 1.119 1.743
0.637 1.118 1.765
0.586 1.132 1.670
0.674 1.112 1.832
0.672 1.008 1.846
0.645 1.435 1.723
0.714 0.935 1.930
0.669 1.051 1.826
0.641 1.118 1.763
0.631 1.136 1.740
0.622 1.122 1.725
0.622 1.122 1.725
0.585 1.118 1.659
0.632 1.113 1.745
0.679 1.034 1.841
0.666 1.127 1.795
0.715 1.002 1.904
0.690 1.000 1.859
0.667 1.118 1.795
0.706 1.093 1.866
0.614 1.090 1.701
0.654 1.143 1.763
0.701 0.837 1.897
0.930 0.681 2.330
0.604 1.127 1.672
0.611 1.112 1.687
0.597 1.113 1.662
0.597 1.113 1.662
0.597 1.113 1.662
0.599 1.131 1.662
0.606 1.114 1.676
0.676 1.027 1.812
0.742 1.053 1.924
0.662 1.111 1.770
0.678 0.903 1.833
0.708 1.083 1.854
0.646 1.104 1.740
0.659 1.130 1.760
1.168 0.583 2.742
1.004 0.710 2.432
0.632 1.117 1.714
0.729 1.035 1.894
0.729 1.035 1.894
0.710 1.043 1.859
0.780 0.927 1.998
1.205 0.492 2.807
0.678 0.940 1.817
0.663 1.091 1.765
0.615 1.115 1.677
1.181 0.470 2.765
1.181 0.470 2.765
0.927 0.520 2.314
0.704 1.136 1.826
0.695 1.109 1.815
0.927 0.718 2.279
0.609 1.125 1.662
1.134 0.710 2.640
0.641 1.125 1.715
0.641 1.125 1.715
1.264 0.749 2.853
0.685 1.123 1.789
0.739 1.075 1.888
1.195 0.580 2.751
0.649 1.122 1.722
0.621 1.125 1.674
0.609 1.099 1.655
1.234 0.449 2.832
0.591 1.100 1.622
0.678 1.102 1.771
0.678 1.093 1.772
0.718 1.093 1.840
0.778 1.147 1.932
0.698 1.042 1.811
0.634 1.126 1.688
0.593 1.103 1.620
1.169 0.753 2.658
0.830 1.090 2.027
0.708 1.101 1.812
1.254 0.743 2.795
0.743 0.853 1.909
0.629 1.121 1.669
0.712 1.020 1.824
0.777 0.604 1.998
0.653 1.117 1.707
0.653 1.117 1.707
0.791 0.555 2.026
0.780 0.859 1.961
0.681 1.094 1.756
0.684 1.104 1.759
0.675 1.054 1.750
0.649 1.125 1.695
0.649 1.125 1.695
0.650 1.125 1.696
0.650 1.125 1.696
1.054 0.607 2.454
1.167 0.479 2.659
1.154 0.176 2.683
1.154 0.176 2.683
0.684 1.141 1.744
0.624 1.115 1.648
0.717 1.023 1.818
0.995 0.433 2.372
1.529 0.103 3.308
1.239 0.526 2.761
0.660 1.116 1.705
0.627 1.112 1.648
0.669 1.138 1.713
1.272 0.514 2.808
0.760 0.845 1.908
0.750 1.098 1.851
1.276 0.166 2.856
1.242 0.765 2.706
1.163 0.625 2.596
0.842 1.458 1.941
0.751 1.123 1.840
0.666 1.122 1.699
0.666 1.122 1.699
1.375 0.106 3.009
0.670 1.134 1.700
1.264 0.501 2.766
0.621 1.103 1.620
0.707 1.137 1.756
0.793 1.124 1.898
1.184 0.313 2.651
0.724 1.089 1.789
0.796 0.825 1.943
0.781 0.830 1.919
0.781 0.830 1.919
0.772 0.855 1.900
0.790 0.828 1.931
0.651 1.120 1.663
1.253 0.158 2.778
0.858 0.441 2.097
1.289 0.487 2.787
1.015 0.607 2.317
0.836 1.066 1.957
1.098 0.742 2.425
0.817 0.847 1.958
1.364 0.303 2.909
1.364 0.303 2.909
0.636 1.088 1.629
0.669 1.106 1.679
0.640 1.108 1.631
0.865 0.571 2.061
0.692 1.071 1.712
1.228 0.422 2.655
0.746 1.156 1.785
0.809 1.098 1.892
0.742 1.118 1.780
0.691 1.120 1.697
0.700 1.131 1.709
0.847 0.595 2.014
1.326 0.431 2.789
0.773 1.080 1.827
0.747 1.126 1.779
0.698 1.116 1.702
0.752 1.142 1.783
0.874 0.854 2.015
0.564 0.350 1.598
0.756 0.400 1.891
0.673 1.122 1.660
0.673 1.122 1.660
0.712 1.135 1.719
0.764 0.609 1.872
0.751 1.044 1.792
0.703 1.138 1.702
1.010 0.670 2.249
0.706 1.120 1.705
0.706 1.120 1.705
0.765 1.113 1.796
0.759 1.117 1.786
0.709 1.113 1.709
0.746 0.442 1.854
0.728 1.103 1.738
0.728 1.103 1.738
0.701 1.109 1.694
0.603 0.343 1.642
1.337 0.468 2.757
0.814 1.436 1.817
1.334 0.504 2.744
0.709 1.113 1.698
0.765 1.100 1.785
0.727 1.102 1.725
0.920 0.344 2.124
0.709 1.126 1.695
0.703 1.131 1.683
1.363 0.537 2.774
0.750 1.099 1.758
1.487 0.866 2.916
1.479 0.876 2.900
0.603 0.339 1.630
0.751 0.436 1.841
0.826 1.026 1.880
0.829 0.452 1.957
0.829 0.452 1.957
0.740 1.124 1.734
1.412 0.496 2.840
1.505 0.808 2.938
1.505 0.808 2.938
0.720 1.073 1.706
0.782 1.098 1.797
0.675 0.552 1.705
0.809 1.419 1.794
1.486 0.831 2.897
1.486 0.831 2.897
1.410 0.446 2.833
0.798 1.010 1.829
0.707 1.124 1.677
0.805 1.152 1.820
0.772 1.133 1.773
0.772 1.133 1.773
0.802 1.097 1.822
1.363 0.532 2.742
1.391 0.497 2.786
0.824 0.831 1.886
0.767 1.084 1.765
0.767 1.084 1.765
1.527 0.462 2.985
1.366 0.508 2.737
0.717 1.129 1.679
0.779 1.379 1.740
0.871 1.078 1.915
1.484 0.806 2.866
0.755 1.073 1.740
0.781 1.132 1.771
0.781 1.132 1.771
0.728 1.113 1.693
0.781 1.079 1.776
0.757 1.146 1.733
0.884 0.778 1.969
1.499 0.483 2.921
1.590 0.841 3.011
1.590 0.841 3.011
1.382 0.766 2.708
0.704 1.089 1.655
0.799 1.184 1.783
0.807 1.157 1.798
0.898 0.785 1.979
0.898 0.785 1.979
0.799 1.145 1.787
0.802 1.073 1.798
0.684 0.364 1.712
0.745 1.126 1.707
0.745 1.126 1.707
0.732 1.127 1.687
0.915 1.432 1.919
0.730 1.119 1.684
0.707 1.114 1.649
0.824 1.070 1.824
0.867 1.168 1.877
1.529 0.838 2.892
1.495 0.772 2.849
0.994 0.501 2.141
0.966 0.827 2.062
0.861 1.023 1.883
0.867 0.596 1.944
0.867 0.596 1.944
0.796 1.381 1.741
0.801 1.070 1.787
0.783 1.139 1.752
1.590 0.830 2.973
0.754 1.132 1.708
0.754 1.132 1.708
0.754 1.132 1.708
1.150 0.565 2.358
0.794 1.069 1.773
0.655 0.475 1.642
0.655 0.475 1.642
1.456 0.808 2.773
0.758 1.126 1.711
0.794 1.138 1.762
0.794 1.138 1.762
1.178 0.391 2.413
0.775 1.158 1.730
1.013 0.427 2.164
0.848 1.024 1.852
0.828 1.011 1.823
0.973 0.845 2.048
0.866 1.094 1.863
0.992 0.851 2.075
0.805 0.366 1.862
0.805 0.366 1.862
1.000 0.841 2.085
0.858 1.077 1.851
0.778 1.139 1.728
1.407 0.185 2.751
1.407 0.185 2.751
0.794 1.145 1.747
0.652 0.476 1.621
0.806 1.375 1.737
0.934 1.011 1.964
0.886 1.080 1.886
0.816 1.101 1.782
0.790 1.124 1.742
0.924 1.017 1.945
0.866 1.007 1.862
4.938 2.547 7.530
0.814 0.998 1.790
0.833 1.069 1.807
0.813 1.153 1.768
0.881 1.142 1.866
0.858 0.982 1.848
1.380 0.583 2.639
0.938 1.028 1.954
0.828 1.126 1.785
0.828 1.126 1.785
0.871 0.975 1.862
0.850 1.076 1.817
0.777 0.981 1.723
0.858 0.955 1.841
0.889 0.993 1.880
0.920 1.169 1.901
1.396 0.587 2.639
1.396 0.587 2.639
1.322 0.833 2.500
1.518 0.756 2.782
1.518 0.756 2.782
0.790 1.123 1.713
0.908 1.027 1.889
0.889 0.991 1.866
1.301 0.599 2.488
1.434 0.897 2.638
0.895 1.010 1.869
0.872 1.074 1.830
0.862 1.109 1.811
0.820 1.147 1.746
0.660 0.360 1.611
0.660 0.360 1.611
0.527 0.358 1.427
0.837 1.136 1.770
0.846 1.130 1.783
0.867 1.127 1.810
0.982 0.941 1.990
0.853 1.098 1.793
0.853 1.098 1.793
1.019 1.126 2.020
1.057 0.937 2.092
1.057 0.937 2.092
0.846 1.148 1.773
0.854 1.109 1.789
0.886 1.071 1.837
0.918 0.975 1.890
0.918 0.975 1.890
1.448 0.746 2.646
0.841 1.149 1.762
0.929 1.006 1.897
0.929 1.006 1.897
0.870 1.055 1.809
0.831 1.133 1.747
0.985 0.971 1.976
0.870 1.136 1.799
1.048 0.935 2.067
0.831 1.041 1.755
0.866 1.125 1.794
0.866 1.125 1.794
1.460 0.576 2.671
1.460 0.576 2.671
0.949 1.166 1.901
0.855 1.153 1.775
1.222 0.586 2.341
0.816 1.020 1.729
0.854 1.126 1.771
1.207 0.707 2.298
0.791 0.459 1.757
1.539 0.900 2.728
1.539 0.900 2.728
0.911 1.067 1.852
0.763 0.376 1.725
0.915 1.048 1.859
0.915 1.048 1.859
1.879 0.498 3.229
1.386 0.835 2.523
1.386 0.835 2.523
1.017 0.922 2.010
0.826 1.119 1.728
0.793 1.123 1.681
0.980 1.111 1.938
0.946 1.168 1.883
0.924 1.065 1.863
0.882 1.143 1.797
0.938 1.054 1.882
0.831 0.457 1.800
1.501 0.863 2.659
1.010 0.925 1.990
0.801 1.116 1.686
0.815 1.121 1.704
0.859 1.132 1.761
0.958 1.063 1.902
0.828 1.139 1.717
0.949 0.998 1.895
0.949 0.998 1.895
0.971 0.957 1.928
0.971 0.957 1.928
1.417 0.816 2.538
0.778 1.107 1.650
0.956 0.959 1.902
0.908 1.400 1.791
0.972 1.097 1.907
0.923 1.056 1.845
0.801 0.458 1.744
0.935 1.047 1.862
1.487 0.828 2.623
0.931 1.412 1.817
1.058 0.306 2.095
0.943 1.030 1.865
0.857 0.324 1.823
0.942 1.420 1.822
0.869 1.123 1.756
0.913 1.046 1.821
0.991 1.036 1.926
0.948 1.039 1.868
1.507 0.873 2.625
1.507 0.873 2.625
0.756 0.473 1.670
1.065 0.977 2.028
0.890 1.049 1.787
1.032 0.972 1.982
0.760 0.303 1.690
0.882 1.146 1.765
0.896 1.148 1.781
1.030 0.319 2.039
1.034 0.318 2.045
1.569 0.829 2.696
0.898 1.157 1.779
1.625 0.796 2.770
0.880 1.122 1.759
0.914 0.992 1.815
1.562 0.804 2.682
1.062 1.004 2.004
0.808 1.110 1.660
1.513 0.870 2.607
0.898 1.140 1.775
1.461 0.868 2.537
1.461 0.868 2.537
0.965 1.017 1.872
0.806 0.310 1.735
1.637 0.865 2.761
1.357 0.735 2.408
1.658 0.854 2.785
1.030 0.917 1.962
0.930 1.164 1.808
0.766 0.294 1.680
1.598 0.881 2.692
1.297 0.718 2.315
1.534 0.826 2.607
1.425 0.796 2.459
2.065 1.001 3.249
0.300 1.226 1.792
0.295 1.225 1.818
0.333 1.209 1.821
0.365 1.199 1.791
0.364 1.202 1.796
0.400 1.198 1.753
0.405 1.191 1.767
0.391 1.183 1.800
0.406 1.180 1.817
0.425 1.187 1.793
0.464 1.175 1.710
0.429 1.195 1.789
0.471 1.174 1.706
0.475 1.171 1.713
0.450 1.186 1.802
0.450 1.175 1.814
0.468 1.182 1.798
0.517 1.163 1.702
0.518 1.166 1.701
0.489 1.174 1.778
0.523 1.164 1.705
0.523 1.164 1.705
0.491 1.116 1.790
0.525 1.161 1.709
0.562 1.161 1.709
0.549 1.163 1.783
0.522 1.154 1.895
0.543 1.169 1.852
0.532 1.160 1.902
0.549 1.165 1.857
0.549 1.165 1.857
0.473 1.139 2.081
0.490 1.148 2.037
0.534 1.155 1.915
0.598 1.399 1.757
0.541 1.125 1.966
0.553 1.124 1.942
0.560 1.137 1.920
0.555 1.115 1.979
0.599 1.147 1.837
0.560 1.107 1.976
0.649 1.145 1.690
0.589 1.104 1.896
0.640 1.389 1.734
0.638 1.389 1.741
0.622 1.146 1.812
0.578 1.116 1.964
0.581 1.117 1.961
0.582 1.099 1.966
0.598 1.137 1.917
0.613 1.099 1.898
0.641 1.122 1.859
0.677 1.381 1.723
0.627 1.099 1.933
0.643 1.080 1.893
0.650 1.090 1.881
0.665 1.138 1.821
0.656 1.125 1.856
0.269 1.141 3.311
0.269 1.141 3.311
0.657 1.116 1.859
0.652 1.085 1.886
0.657 1.075 1.884
0.664 1.118 1.855
0.665 1.112 1.857
0.675 1.112 1.851
0.711 1.132 1.726
0.727 1.131 1.679
0.683 1.110 1.857
0.688 1.086 1.871
0.724 1.128 1.747
0.695 1.070 1.872
0.695 1.070 1.872
0.717 1.334 1.759
0.704 1.076 1.870
0.730 1.331 1.763
0.728 1.117 1.801
0.718 1.066 1.852
0.747 1.367 1.716
0.630 1.758 2.226
0.727 1.055 1.860
0.717 1.012 1.919
0.741 1.102 1.826
0.736 1.040 1.865
0.736 1.072 1.877
0.736 1.072 1.877
0.795 1.116 1.660
0.787 1.122 1.790
0.783 0.897 1.895
0.805 1.063 1.789
0.791 0.851 1.937
0.791 0.851 1.937
0.794 0.868 1.932
0.808 1.016 1.845
0.808 1.027 1.848
0.804 0.835 1.941
0.809 0.849 1.946
0.828 1.064 1.799
0.828 1.075 1.801
0.834 1.353 1.724
0.832 1.060 1.807
0.830 1.005 1.852
0.838 1.103 1.780
0.838 1.103 1.780
0.844 1.112 1.768
0.851 1.111 1.720
0.844 1.093 1.781
0.846 1.095 1.778
0.847 1.103 1.773
0.852 1.046 1.825
0.856 1.062 1.807
0.848 0.929 1.902
0.859 1.085 1.804
0.856 1.041 1.838
0.858 1.049 1.834
0.864 0.976 1.873
0.872 1.314 1.759
0.873 0.987 1.860
0.874 1.011 1.849
0.874 0.978 1.870
0.880 0.988 1.863
0.884 0.986 1.844
0.883 0.972 1.875
0.893 1.049 1.827
0.901 1.059 1.814
0.907 0.980 1.848
0.908 0.986 1.847
0.909 1.035 1.826
0.912 1.080 1.780
0.913 0.986 1.848
0.915 0.974 1.847
0.916 1.026 1.833
0.914 0.944 1.891
0.917 1.015 1.831
0.917 1.015 1.831
0.924 1.012 1.830
0.937 0.960 1.881
0.956 0.882 2.039
