0.121 -0.130 2.822
0.116 -0.147 2.772
0.118 -0.142 2.762
0.125 -0.149 2.809
0.125 -0.149 2.809
0.147 -0.162 2.943
0.153 -0.162 2.958
0.158 -0.161 2.963
0.118 -0.076 2.739
0.140 -0.137 2.819
0.149 -0.168 2.791
0.147 -0.165 2.762
0.151 -0.169 2.785
0.151 -0.169 2.785
0.154 -0.169 2.796
0.175 -0.168 2.919
0.156 -0.168 2.756
0.189 -0.178 2.959
0.159 -0.161 2.742
0.202 -0.190 2.955
0.191 -0.159 2.819
0.202 -0.149 2.896
0.188 -0.156 2.792
0.187 -0.158 2.751
0.187 -0.158 2.751
0.209 -0.160 2.901
0.197 -0.159 2.793
0.226 -0.168 2.983
0.199 -0.166 2.737
0.237 -0.172 2.963
0.198 -0.088 2.704
0.217 -0.160 2.787
0.220 -0.158 2.775
0.234 -0.161 2.848
0.227 -0.165 2.778
0.222 -0.160 2.736
0.252 -0.175 2.941
0.252 -0.175 2.941
0.232 -0.164 2.803
0.244 -0.166 2.875
0.252 -0.172 2.932
0.229 -0.167 2.769
0.240 -0.162 2.842
0.230 -0.164 2.763
0.259 -0.176 2.960
0.259 -0.177 2.948
0.259 -0.177 2.948
0.259 -0.177 2.948
0.230 -0.175 2.743
0.235 -0.165 2.779
0.240 -0.167 2.805
0.256 -0.166 2.920
0.241 -0.170 2.797
0.239 -0.171 2.784
0.248 -0.159 2.836
0.233 -0.166 2.726
0.252 -0.169 2.856
0.246 -0.170 2.808
0.255 -0.171 2.870
0.248 -0.171 2.823
0.268 -0.184 2.944
0.260 -0.168 2.893
0.258 -0.172 2.877
0.237 -0.169 2.731
0.269 -0.177 2.924
0.269 -0.172 2.914
0.269 -0.172 2.914
0.258 -0.172 2.838
0.255 -0.172 2.814
0.252 -0.162 2.798
0.250 -0.188 2.768
0.260 -0.170 2.845
0.241 -0.119 2.715
0.266 -0.173 2.864
0.281 -0.165 2.975
0.272 -0.175 2.901
0.276 -0.179 2.923
0.279 -0.176 2.934
0.274 -0.175 2.896
0.262 -0.172 2.791
0.266 -0.170 2.806
0.260 -0.169 2.754
0.272 -0.168 2.836
0.264 -0.174 2.763
0.286 -0.169 2.912
0.297 -0.181 2.977
0.279 -0.172 2.843
0.274 -0.141 2.847
0.279 -0.167 2.822
0.267 -0.162 2.739
0.289 -0.164 2.891
0.269 -0.167 2.746
0.280 -0.163 2.809
0.288 -0.174 2.869
0.285 -0.168 2.801
0.290 -0.164 2.826
0.304 -0.169 2.913
0.280 -0.171 2.738
0.306 -0.167 2.888
0.292 -0.179 2.763
0.314 -0.167 2.911
0.293 -0.171 2.757
0.298 -0.170 2.773
0.301 -0.169 2.789
0.307 -0.165 2.821
0.329 -0.180 2.957
0.323 -0.167 2.911
0.321 -0.167 2.884
0.293 -0.089 2.705
0.314 -0.167 2.829
0.309 -0.172 2.783
0.311 -0.173 2.795
0.339 -0.176 2.991
0.313 -0.171 2.806
0.338 -0.190 2.973
0.330 -0.173 2.914
0.318 -0.170 2.817
0.318 -0.170 2.817
0.335 -0.176 2.934
0.336 -0.181 2.943
0.339 -0.180 2.925
0.339 -0.180 2.925
0.319 -0.172 2.788
0.319 -0.172 2.788
0.323 -0.170 2.807
0.326 -0.173 2.823
0.334 -0.173 2.869
0.337 -0.176 2.884
0.342 -0.180 2.917
0.344 -0.186 2.929
0.344 -0.186 2.929
0.320 -0.177 2.750
0.334 -0.175 2.821
0.332 -0.175 2.804
0.350 -0.184 2.921
0.350 -0.184 2.921
0.354 -0.185 2.944
0.337 -0.182 2.829
0.338 -0.183 2.839
0.352 -0.188 2.931
0.340 -0.185 2.846
0.342 -0.184 2.855
0.343 -0.179 2.866
0.332 -0.178 2.776
0.335 -0.183 2.789
0.341 -0.180 2.819
0.339 -0.185 2.803
0.363 -0.192 2.967
0.360 -0.197 2.942
0.358 -0.193 2.923
0.347 -0.186 2.849
0.350 -0.185 2.870
0.354 -0.193 2.893
0.349 -0.187 2.858
0.343 -0.247 2.778
0.349 -0.208 2.815
0.368 -0.206 2.946
0.368 -0.206 2.946
0.362 -0.213 2.890
0.359 -0.209 2.872
0.341 -0.193 2.750
0.341 -0.193 2.750
0.347 -0.167 2.721
0.353 -0.216 2.767
0.371 -0.219 2.884
0.371 -0.219 2.884
0.367 -0.218 2.848
0.371 -0.221 2.875
0.363 -0.211 2.811
0.392 -0.222 3.011
0.389 -0.221 2.988
0.382 -0.225 2.938
0.376 -0.219 2.897
0.376 -0.219 2.897
0.378 -0.222 2.907
0.392 -0.221 3.003
0.383 -0.212 2.926
0.383 -0.207 2.928
0.357 -0.193 2.729
0.396 -0.225 2.975
0.391 -0.201 2.927
0.391 -0.201 2.927
0.396 -0.217 2.956
0.403 -0.230 2.999
0.390 -0.186 2.906
0.401 -0.226 2.983
0.400 -0.230 2.965
0.376 -0.177 2.799
0.376 -0.177 2.799
0.369 -0.179 2.748
0.389 -0.181 2.885
0.397 -0.205 2.938
0.387 -0.183 2.870
0.387 -0.182 2.862
0.408 -0.228 2.997
0.377 -0.176 2.785
0.375 -0.178 2.766
0.374 -0.177 2.758
0.392 -0.182 2.874
0.383 -0.178 2.801
0.377 -0.179 2.750
0.373 -0.181 2.724
0.373 -0.181 2.724
0.375 -0.178 2.731
0.411 -0.242 2.984
0.397 -0.190 2.879
0.381 -0.178 2.770
0.381 -0.177 2.759
0.386 -0.176 2.791
0.396 -0.183 2.854
0.396 -0.180 2.846
0.401 -0.195 2.883
0.404 -0.199 2.894
0.415 -0.238 2.964
0.388 -0.177 2.766
0.404 -0.190 2.872
0.404 -0.248 2.880
0.409 -0.206 2.897
0.384 -0.111 2.718
0.390 -0.138 2.749
0.418 -0.237 2.952
0.392 -0.174 2.773
0.392 -0.174 2.773
0.402 -0.177 2.831
0.426 -0.234 2.992
0.424 -0.250 2.977
0.416 -0.225 2.915
0.403 -0.174 2.795
0.400 -0.180 2.774
0.399 -0.179 2.759
0.431 -0.252 2.982
0.411 -0.195 2.842
0.407 -0.180 2.808
0.421 -0.222 2.897
0.421 -0.222 2.897
0.436 -0.243 2.994
0.405 -0.175 2.768
0.433 -0.260 2.964
0.436 -0.259 2.973
0.412 -0.177 2.785
0.404 -0.134 2.717
0.409 -0.121 2.733
0.414 -0.179 2.768
0.418 -0.180 2.788
0.419 -0.180 2.781
0.422 -0.194 2.792
0.433 -0.164 2.841
0.433 -0.224 2.842
0.423 -0.177 2.763
0.433 -0.218 2.832
0.453 -0.259 2.954
0.437 -0.210 2.824
0.437 -0.210 2.824
0.431 -0.194 2.756
0.433 -0.181 2.743
0.433 -0.181 2.743
0.437 -0.208 2.772
0.448 -0.220 2.778
0.478 -0.139 2.776
0.493 -0.168 2.805
0.493 -0.168 2.805
0.512 -0.154 2.827
0.511 -0.153 2.816
-0.313 -0.261 2.943
-0.312 -0.259 2.943
-0.326 -0.244 2.835
-0.303 -0.253 2.933
-0.279 -0.255 3.077
-0.312 -0.253 2.854
-0.292 -0.258 2.961
-0.344 -0.263 2.615
-0.298 -0.252 2.922
-0.275 -0.255 3.062
-0.312 -0.253 2.830
-0.303 -0.249 2.877
-0.282 -0.257 2.981
-0.305 -0.250 2.842
-0.274 -0.253 3.023
-0.280 -0.255 2.982
-0.301 -0.247 2.850
-0.280 -0.253 2.973
-0.291 -0.252 2.900
-0.265 -0.254 3.054
-0.288 -0.249 2.906
-0.288 -0.249 2.906
-0.261 -0.246 3.060
-0.273 -0.225 2.926
-0.245 -0.231 3.084
-0.254 -0.229 3.011
-0.247 -0.229 3.001
-0.244 -0.229 3.021
-0.244 -0.229 3.021
-0.241 -0.225 3.039
-0.233 -0.227 3.085
-0.233 -0.227 3.085
-0.233 -0.229 3.085
-0.233 -0.229 3.085
-0.234 -0.231 3.071
-0.230 -0.232 3.093
-0.242 -0.229 3.009
-0.262 -0.199 2.870
-0.256 -0.201 2.893
-0.255 -0.195 2.905
-0.232 -0.212 3.027
-0.252 -0.196 2.899
-0.251 -0.209 2.883
-0.249 -0.196 2.892
-0.224 -0.201 3.030
-0.224 -0.201 3.030
-0.244 -0.194 2.883
-0.253 -0.191 2.828
-0.218 -0.201 3.035
-0.230 -0.196 2.961
-0.232 -0.195 2.899
-0.255 -0.027 2.974
-0.255 -0.027 2.974
-0.229 -0.194 2.906
-0.238 -0.199 2.837
-0.218 -0.197 2.967
-0.215 -0.199 2.977
-0.229 -0.192 2.891
-0.232 -0.193 2.869
-0.221 -0.196 2.929
-0.217 -0.193 2.955
-0.207 -0.200 3.004
-0.227 -0.194 2.883
-0.231 -0.192 2.854
-0.198 -0.205 3.049
-0.202 -0.198 3.023
-0.212 -0.193 2.964
-0.191 -0.198 3.080
-0.198 -0.202 3.016
-0.198 -0.189 3.029
-0.237 -0.167 2.813
-0.203 -0.173 2.985
-0.196 -0.183 3.013
-0.227 -0.167 2.822
-0.213 -0.168 2.900
-0.219 -0.167 2.863
-0.221 -0.166 2.841
-0.198 -0.169 2.935
-0.198 -0.169 2.935
-0.183 -0.174 2.990
-0.198 -0.168 2.899
-0.193 -0.166 2.918
-0.212 -0.157 2.803
-0.198 -0.165 2.867
-0.197 -0.164 2.873
-0.197 -0.164 2.873
-0.180 -0.165 2.969
-0.193 -0.170 2.878
-0.173 -0.172 2.998
-0.162 -0.162 3.022
-0.173 -0.137 2.980
-0.194 -0.143 2.833
-0.180 -0.130 2.934
-0.173 -0.139 2.969
-0.206 -0.099 2.793
-0.156 -0.161 3.028
-0.184 -0.147 2.867
-0.156 -0.160 3.028
-0.174 -0.126 2.954
-0.160 -0.152 3.000
-0.197 -0.111 2.806
-0.180 -0.144 2.851
-0.180 -0.144 2.851
-0.179 -0.142 2.858
-0.150 -0.161 3.020
-0.175 -0.108 2.902
-0.151 -0.148 2.985
-0.173 -0.146 2.846
-0.173 -0.147 2.846
-0.173 -0.147 2.846
-0.171 -0.129 2.879
-0.167 -0.142 2.864
-0.166 -0.147 2.855
-0.178 0.037 2.929
-0.143 -0.137 2.860
-0.138 -0.142 2.859
-0.138 -0.142 2.859
-0.106 -0.158 3.018
-0.100 -0.158 3.009
-0.100 -0.158 3.009
-0.082 -0.160 2.993
-0.106 -0.147 2.835
-0.106 -0.147 2.835
-0.102 -0.142 2.852
-0.102 -0.142 2.852
-0.069 -0.152 2.981
-0.091 -0.147 2.839
-0.090 -0.142 2.851
-0.042 -0.160 2.983
-0.048 -0.141 2.843
-0.048 -0.141 2.843
-0.021 -0.162 2.988
-0.002 -0.160 2.974
0.008 -0.160 2.972
-0.006 -0.148 2.817
0.025 -0.152 2.960
0.025 -0.152 2.960
0.030 -0.163 2.976
0.032 -0.159 2.967
0.009 -0.147 2.817
0.015 -0.149 2.807
0.018 -0.149 2.822
0.041 -0.152 2.958
0.045 -0.161 2.967
0.047 -0.157 2.977
0.025 -0.126 2.842
0.052 -0.160 2.981
0.049 -0.151 2.955
0.038 -0.126 2.849
0.080 -0.162 2.968
0.086 -0.162 2.973
0.105 -0.161 2.977
0.081 -0.148 2.819
0.081 -0.148 2.819
0.089 -0.154 2.792
0.088 -0.134 2.760
0.088 -0.134 2.760
0.124 -0.164 2.965
0.096 -0.138 2.764
0.104 -0.155 2.798
0.103 -0.153 2.773
0.103 -0.153 2.773
0.108 -0.153 2.806
0.138 -0.162 2.955
0.112 -0.157 2.786
0.112 -0.136 2.760
0.121 -0.128 2.822
0.121 -0.150 2.804
0.116 -0.149 2.772
0.135 -0.090 2.880
0.149 -0.164 2.954
0.147 -0.161 2.943
0.153 -0.165 2.958
0.158 -0.162 2.963
0.164 -0.165 2.959
0.141 -0.134 2.819
0.141 -0.129 2.820
0.147 -0.167 2.762
0.154 -0.158 2.812
0.151 -0.170 2.785
0.151 -0.170 2.785
0.154 -0.169 2.796
0.156 -0.172 2.756
0.168 -0.163 2.827
0.189 -0.181 2.958
0.159 -0.162 2.742
0.189 -0.168 2.897
0.180 -0.159 2.826
0.200 -0.145 2.961
0.188 -0.153 2.834
0.192 -0.162 2.818
0.188 -0.156 2.792
0.177 -0.134 2.718
0.187 -0.161 2.751
0.187 -0.161 2.751
0.187 -0.161 2.751
0.205 -0.164 2.845
0.197 -0.160 2.793
0.197 -0.160 2.793
0.207 -0.166 2.846
0.199 -0.149 2.738
0.219 -0.157 2.775
0.234 -0.162 2.848
0.228 -0.168 2.777
0.232 -0.164 2.803
0.222 -0.164 2.736
0.252 -0.174 2.932
0.244 -0.169 2.875
0.240 -0.164 2.842
0.230 -0.169 2.769
0.234 -0.169 2.792
0.230 -0.167 2.763
0.259 -0.180 2.948
0.257 -0.176 2.936
0.230 -0.177 2.743
0.235 -0.170 2.779
0.240 -0.168 2.805
0.256 -0.166 2.906
0.241 -0.171 2.797
0.239 -0.171 2.784
0.247 -0.159 2.836
0.252 -0.172 2.856
0.267 -0.181 2.952
0.264 -0.177 2.931
0.255 -0.169 2.870
0.246 -0.172 2.807
0.267 -0.184 2.944
0.249 -0.174 2.822
0.260 -0.169 2.893
0.258 -0.175 2.877
0.237 -0.171 2.730
0.242 -0.189 2.743
0.269 -0.181 2.924
0.265 -0.180 2.885
0.258 -0.182 2.837
0.255 -0.175 2.814
0.261 -0.172 2.844
0.258 -0.122 2.843
0.272 -0.178 2.901
0.242 -0.146 2.713
0.252 -0.174 2.764
0.245 -0.140 2.726
0.276 -0.182 2.923
0.279 -0.178 2.934
0.250 -0.147 2.746
0.274 -0.178 2.895
0.262 -0.176 2.790
0.266 -0.174 2.805
0.286 -0.173 2.911
0.292 -0.178 2.945
0.292 -0.179 2.945
0.264 -0.176 2.763
0.277 -0.098 2.850
0.289 -0.169 2.916
0.279 -0.173 2.843
0.279 -0.171 2.821
0.267 -0.166 2.739
0.289 -0.168 2.890
0.269 -0.170 2.746
0.280 -0.167 2.809
0.291 -0.173 2.869
0.285 -0.170 2.801
0.290 -0.167 2.826
0.304 -0.169 2.913
0.280 -0.168 2.739
0.306 -0.174 2.887
0.303 -0.173 2.856
0.292 -0.178 2.764
0.297 -0.169 2.796
0.305 -0.175 2.851
0.314 -0.169 2.910
0.293 -0.175 2.757
0.298 -0.174 2.773
0.307 -0.168 2.821
0.295 -0.159 2.736
0.294 -0.209 2.699
0.327 -0.180 2.925
0.321 -0.167 2.884
0.309 -0.174 2.783
0.309 -0.174 2.783
0.311 -0.175 2.795
0.313 -0.176 2.805
0.330 -0.177 2.914
0.317 -0.174 2.817
0.328 -0.172 2.878
0.338 -0.183 2.924
0.338 -0.183 2.924
0.319 -0.179 2.788
0.319 -0.179 2.788
0.323 -0.173 2.807
0.326 -0.175 2.823
0.334 -0.177 2.869
0.344 -0.168 2.932
0.344 -0.168 2.932
0.337 -0.180 2.884
0.342 -0.182 2.916
0.331 -0.174 2.842
0.344 -0.188 2.929
0.334 -0.173 2.821
0.350 -0.186 2.921
0.354 -0.190 2.944
0.352 -0.195 2.931
0.338 -0.182 2.839
0.337 -0.186 2.828
0.341 -0.189 2.854
0.346 -0.188 2.887
0.343 -0.181 2.865
0.328 -0.184 2.759
0.332 -0.188 2.775
0.335 -0.184 2.789
0.336 -0.185 2.797
0.341 -0.186 2.818
0.339 -0.186 2.803
0.360 -0.201 2.941
0.358 -0.194 2.923
0.347 -0.187 2.848
0.354 -0.189 2.893
0.350 -0.193 2.870
0.356 -0.204 2.906
0.352 -0.192 2.882
0.348 -0.189 2.858
0.348 -0.205 2.815
0.337 -0.178 2.732
0.369 -0.201 2.946
0.362 -0.218 2.890
0.359 -0.213 2.871
0.342 -0.197 2.749
0.342 -0.197 2.749
0.352 -0.214 2.767
0.360 -0.216 2.819
0.371 -0.222 2.884
0.367 -0.219 2.848
0.371 -0.224 2.875
0.389 -0.212 2.990
0.382 -0.231 2.937
0.378 -0.226 2.906
0.393 -0.212 3.012
0.385 -0.230 2.949
0.377 -0.225 2.896
0.377 -0.225 2.896
0.362 -0.186 2.749
0.396 -0.231 2.974
0.396 -0.227 2.955
0.401 -0.232 2.983
0.390 -0.191 2.905
0.403 -0.234 2.998
0.382 -0.184 2.850
0.382 -0.184 2.850
0.400 -0.232 2.965
0.397 -0.208 2.938
0.389 -0.186 2.884
0.378 -0.181 2.808
0.369 -0.184 2.747
0.387 -0.184 2.870
0.387 -0.183 2.862
0.369 -0.176 2.735
0.377 -0.183 2.784
0.375 -0.180 2.766
0.374 -0.183 2.758
0.392 -0.189 2.873
0.383 -0.183 2.801
0.368 -0.140 2.700
0.377 -0.181 2.750
0.411 -0.245 2.983
0.375 -0.182 2.731
0.381 -0.179 2.770
0.397 -0.195 2.878
0.381 -0.178 2.759
0.381 -0.178 2.759
0.387 -0.177 2.791
0.396 -0.185 2.854
0.401 -0.199 2.883
0.396 -0.176 2.847
0.399 -0.191 2.867
0.415 -0.245 2.963
0.388 -0.178 2.766
0.404 -0.194 2.872
0.408 -0.210 2.897
0.422 -0.250 2.991
0.383 -0.167 2.715
0.392 -0.179 2.773
0.392 -0.179 2.773
0.402 -0.183 2.830
0.424 -0.254 2.977
0.416 -0.229 2.914
0.424 -0.252 2.958
0.417 -0.237 2.909
0.406 -0.178 2.819
0.403 -0.183 2.794
0.401 -0.176 2.775
0.411 -0.195 2.842
0.407 -0.180 2.808
0.421 -0.223 2.897
0.421 -0.223 2.897
0.435 -0.247 2.994
0.405 -0.182 2.768
0.433 -0.264 2.963
0.436 -0.263 2.972
0.414 -0.182 2.801
0.412 -0.183 2.784
0.403 -0.163 2.715
0.403 -0.163 2.715
0.407 -0.170 2.730
0.418 -0.196 2.813
0.422 -0.219 2.835
0.413 -0.183 2.768
0.414 -0.184 2.768
0.419 -0.181 2.781
0.422 -0.192 2.792
0.426 -0.153 2.796
0.421 -0.187 2.772
0.422 -0.182 2.762
0.433 -0.224 2.842
0.449 -0.263 2.946
0.453 -0.264 2.953
0.436 -0.224 2.822
0.436 -0.224 2.822
0.427 -0.172 2.728
0.431 -0.199 2.756
0.437 -0.203 2.773
0.433 -0.182 2.742
0.440 -0.148 2.726
0.457 -0.226 2.797
0.461 -0.255 2.832
0.467 -0.259 2.852
0.476 -0.203 2.872
0.477 -0.170 2.774
0.504 -0.165 2.858
0.513 -0.153 2.827
0.512 -0.150 2.817
-0.314 -0.262 2.943
-0.268 -0.256 3.147
-0.293 -0.256 2.961
-0.311 -0.259 2.854
-0.297 -0.256 2.921
-0.282 -0.257 2.981
-0.265 -0.253 3.054
-0.278 -0.258 2.973
-0.303 -0.257 2.842
-0.303 -0.257 2.842
-0.339 -0.280 2.617
-0.339 -0.280 2.617
-0.261 -0.250 3.060
-0.273 -0.256 2.977
-0.286 -0.257 2.906
-0.281 -0.255 2.926
-0.281 -0.255 2.926
-0.253 -0.234 3.011
-0.232 -0.231 3.085
-0.232 -0.232 3.085
-0.232 -0.232 3.085
-0.230 -0.232 3.093
-0.230 -0.250 3.070
-0.246 -0.233 3.001
-0.275 -0.233 2.829
-0.241 -0.230 3.009
-0.276 -0.224 2.808
-0.231 -0.216 3.027
-0.261 -0.202 2.870
-0.219 -0.211 3.078
-0.255 -0.205 2.893
-0.252 -0.206 2.905
-0.254 -0.207 2.888
-0.249 -0.206 2.899
-0.271 -0.197 2.791
-0.269 -0.207 2.791
-0.249 -0.217 2.883
-0.222 -0.209 3.029
-0.222 -0.209 3.029
-0.216 -0.208 3.034
-0.259 -0.205 2.802
-0.228 -0.205 2.961
-0.242 -0.205 2.883
-0.249 -0.207 2.829
-0.216 -0.208 3.004
-0.230 -0.204 2.899
-0.196 -0.214 3.048
-0.242 -0.206 2.806
-0.200 -0.209 3.022
-0.220 -0.200 2.929
-0.226 -0.203 2.891
-0.215 -0.201 2.954
-0.230 -0.202 2.869
-0.220 -0.198 2.912
-0.220 -0.198 2.912
-0.225 -0.203 2.883
-0.252 -0.024 2.973
-0.252 -0.024 2.973
-0.196 -0.201 3.028
-0.197 -0.208 3.016
-0.186 -0.192 3.088
-0.201 -0.186 2.985
-0.233 -0.181 2.813
-0.194 -0.188 3.013
-0.228 -0.185 2.824
-0.213 -0.181 2.884
-0.213 -0.181 2.884
-0.224 -0.179 2.822
-0.216 -0.180 2.863
-0.181 -0.183 2.990
-0.195 -0.182 2.899
-0.194 -0.179 2.873
-0.171 -0.183 2.998
-0.174 -0.179 2.975
-0.192 -0.177 2.878
-0.168 -0.172 3.000
-0.174 -0.164 2.964
-0.160 -0.172 3.022
-0.170 -0.152 2.980
-0.210 0.175 3.123
-0.180 -0.152 2.920
-0.185 -0.139 2.897
-0.169 -0.158 2.969
-0.169 -0.159 2.969
-0.191 -0.161 2.834
-0.185 -0.159 2.864
-0.160 -0.153 2.979
-0.148 -0.171 3.019
-0.192 -0.139 2.807
-0.177 -0.159 2.852
-0.177 -0.159 2.852
-0.141 -0.161 3.036
-0.139 -0.168 3.026
-0.171 -0.161 2.846
-0.170 -0.161 2.846
-0.164 -0.157 2.865
-0.163 -0.160 2.855
-0.172 0.001 2.929
-0.175 0.053 2.922
-0.144 -0.158 2.861
-0.166 0.050 2.926
-0.105 -0.165 3.018
-0.098 -0.166 3.009
-0.098 -0.166 3.009
-0.117 -0.155 2.855
-0.080 -0.167 2.993
-0.075 -0.159 2.975
-0.068 -0.160 2.981
-0.062 -0.168 3.000
-0.102 -0.133 2.795
-0.088 -0.153 2.851
-0.084 -0.157 2.824
-0.079 -0.157 2.840
-0.041 -0.166 2.983
-0.066 -0.148 2.853
-0.039 -0.157 2.967
-0.017 -0.157 2.963
-0.005 -0.157 2.818
0.031 -0.165 2.986
0.030 -0.166 2.976
-0.003 -0.149 2.793
0.033 -0.162 2.994
0.033 -0.162 2.994
0.033 -0.164 2.967
0.010 -0.157 2.818
0.041 -0.157 2.958
0.015 -0.156 2.807
0.018 -0.155 2.823
0.046 -0.165 2.967
0.047 -0.163 2.977
0.025 -0.130 2.842
0.054 -0.167 2.981
0.050 -0.156 2.955
0.039 -0.134 2.849
0.045 -0.152 2.825
0.080 -0.165 2.968
0.086 -0.164 2.973
0.089 -0.162 2.980
0.082 -0.153 2.942
0.082 -0.153 2.942
0.075 -0.146 2.824
0.104 -0.157 2.977
0.105 -0.165 2.962
0.090 -0.157 2.792
0.124 -0.163 2.965
0.098 -0.152 2.802
0.096 -0.144 2.765
0.104 -0.156 2.798
0.109 -0.155 2.806
0.103 -0.152 2.773
0.138 -0.165 2.955
0.113 -0.158 2.786
0.107 -0.135 2.751
0.148 -0.152 2.977
0.148 -0.152 2.977
0.112 -0.142 2.760
0.122 -0.135 2.822
0.132 -0.132 2.881
0.121 -0.153 2.805
0.147 -0.159 2.943
0.153 -0.163 2.958
0.125 -0.157 2.791
0.156 -0.158 2.971
0.158 -0.161 2.963
0.164 -0.164 2.959
0.155 -0.159 2.812
0.155 -0.159 2.812
0.151 -0.167 2.784
-0.111 2.573 2.711
0.154 -0.167 2.796
0.184 -0.169 2.967
0.184 -0.169 2.967
0.014 1.355 2.669
0.156 -0.173 2.756
0.189 -0.176 2.958
0.167 -0.164 2.827
0.177 -0.081 2.822
0.176 -0.155 2.737
0.192 -0.157 2.818
0.188 -0.156 2.792
0.187 -0.158 2.750
0.187 -0.158 2.750
0.197 -0.139 2.737
0.237 -0.168 2.964
0.219 -0.157 2.775
0.252 -0.167 2.932
0.228 -0.163 2.777
0.232 -0.161 2.803
0.232 -0.161 2.803
0.244 -0.163 2.875
0.222 -0.157 2.735
0.239 -0.154 2.842
0.221 -0.158 2.718
0.230 -0.163 2.768
0.258 -0.171 2.948
0.257 -0.170 2.936
0.257 -0.170 2.936
0.234 -0.163 2.791
0.230 -0.160 2.762
0.229 -0.164 2.742
0.245 -0.160 2.844
0.235 -0.164 2.778
0.251 -0.161 2.879
0.249 -0.165 2.863
0.257 -0.161 2.906
0.267 -0.165 2.963
0.241 -0.164 2.797
0.267 -0.167 2.963
0.239 -0.165 2.784
0.247 -0.157 2.836
0.267 -0.175 2.944
0.252 -0.163 2.856
0.255 -0.164 2.870
0.235 -0.169 2.737
0.246 -0.166 2.807
0.249 -0.166 2.822
0.258 -0.165 2.876
0.237 -0.165 2.730
0.269 -0.172 2.924
0.258 -0.168 2.836
0.271 -0.170 2.901
0.277 -0.171 2.934
0.276 -0.173 2.923
0.252 -0.167 2.763
0.275 -0.161 2.879
0.266 -0.164 2.805
0.260 -0.188 2.752
0.291 -0.171 2.945
0.271 0.012 2.848
0.264 -0.167 2.762
0.289 -0.163 2.916
0.259 -0.151 2.718
0.278 -0.165 2.821
0.269 -0.163 2.746
0.279 -0.160 2.809
0.293 -0.169 2.868
0.285 -0.162 2.800
0.304 -0.163 2.913
0.280 -0.161 2.738
0.280 -0.158 2.726
0.302 -0.166 2.859
0.302 -0.164 2.856
0.291 -0.168 2.763
0.296 -0.161 2.796
0.314 -0.163 2.910
0.293 -0.163 2.756
0.295 -0.181 2.757
0.298 -0.163 2.772
0.306 -0.161 2.821
0.289 -0.168 2.696
0.327 -0.170 2.925
0.321 -0.158 2.884
0.320 -0.164 2.873
0.305 -0.161 2.764
0.305 -0.161 2.764
0.310 -0.163 2.795
0.309 -0.164 2.782
0.309 -0.164 2.782
0.313 -0.161 2.804
0.330 -0.167 2.914
0.323 -0.163 2.860
0.317 -0.163 2.817
0.329 -0.161 2.887
0.328 -0.160 2.878
0.311 -0.168 2.747
0.319 -0.164 2.787
0.323 -0.163 2.806
0.326 -0.162 2.823
0.339 -0.172 2.900
0.334 -0.164 2.868
0.337 -0.165 2.884
0.337 -0.163 2.884
0.342 -0.172 2.916
0.331 -0.167 2.841
0.331 -0.162 2.812
0.329 -0.162 2.797
0.328 -0.172 2.783
0.353 -0.180 2.944
0.352 -0.178 2.931
0.355 -0.183 2.950
0.337 -0.175 2.828
0.344 -0.168 2.873
0.349 -0.175 2.910
0.341 -0.173 2.854
0.343 -0.165 2.865
0.346 -0.176 2.887
0.324 -0.171 2.739
0.328 -0.174 2.758
0.332 -0.171 2.774
0.341 -0.172 2.818
0.360 -0.187 2.941
0.339 -0.173 2.802
0.356 -0.179 2.914
0.344 -0.176 2.834
0.355 -0.180 2.906
0.347 -0.174 2.848
0.354 -0.180 2.893
0.350 -0.177 2.869
0.352 -0.178 2.882
0.348 -0.175 2.857
0.338 -0.186 2.770
0.338 -0.186 2.770
0.344 -0.174 2.796
0.348 -0.179 2.814
0.336 -0.171 2.732
0.362 -0.200 2.889
0.359 -0.202 2.871
0.343 -0.188 2.749
0.369 -0.204 2.889
0.345 -0.180 2.722
0.352 -0.195 2.766
0.360 -0.197 2.818
0.371 -0.205 2.884
0.367 -0.203 2.847
0.371 -0.205 2.874
0.382 -0.213 2.937
0.378 -0.208 2.906
0.382 -0.199 2.925
0.396 -0.211 2.975
0.396 -0.204 2.955
0.401 -0.214 2.983
0.381 -0.171 2.850
0.381 -0.171 2.850
0.397 -0.194 2.938
0.400 -0.214 2.965
0.389 -0.170 2.884
0.387 -0.171 2.869
0.387 -0.171 2.861
0.369 -0.165 2.734
0.369 -0.165 2.734
0.395 -0.183 2.908
0.377 -0.167 2.783
0.375 -0.168 2.765
0.375 -0.168 2.765
0.375 -0.168 2.757
0.404 -0.213 2.955
0.392 -0.170 2.872
0.400 -0.191 2.919
0.397 -0.182 2.900
0.369 -0.161 2.701
0.382 -0.163 2.795
0.375 -0.167 2.739
0.412 -0.222 2.984
0.377 -0.169 2.749
0.381 -0.166 2.769
0.402 -0.186 2.904
0.397 -0.182 2.878
0.381 -0.164 2.758
0.381 -0.164 2.758
0.387 -0.165 2.790
0.396 -0.170 2.854
0.402 -0.182 2.883
0.400 -0.173 2.866
0.397 -0.171 2.847
0.416 -0.223 2.963
0.404 -0.178 2.871
0.408 -0.190 2.897
0.383 -0.162 2.715
0.392 -0.164 2.772
0.392 -0.164 2.772
0.407 -0.182 2.862
0.424 -0.231 2.977
0.405 -0.174 2.844
0.416 -0.207 2.914
0.424 -0.228 2.959
0.406 -0.170 2.819
0.403 -0.165 2.793
0.401 -0.168 2.774
0.412 -0.181 2.841
0.407 -0.168 2.807
0.421 -0.207 2.897
0.421 -0.207 2.897
0.405 -0.163 2.767
0.434 -0.240 2.963
0.437 -0.237 2.972
0.402 -0.157 2.715
0.402 -0.157 2.715
0.413 -0.165 2.801
0.403 -0.164 2.715
0.403 -0.164 2.715
0.413 -0.167 2.783
0.406 -0.164 2.730
0.418 -0.182 2.812
0.419 -0.162 2.780
0.415 -0.163 2.736
0.421 -0.167 2.771
0.422 -0.166 2.762
0.434 -0.203 2.841
0.437 -0.203 2.821
0.437 -0.203 2.821
0.427 -0.161 2.727
0.432 -0.181 2.754
0.437 -0.194 2.772
0.448 -0.210 2.833
0.457 -0.219 2.797
0.467 -0.231 2.851
0.475 -0.220 2.796
0.479 -0.228 2.810
0.482 -0.239 2.834
0.497 -0.129 2.882
0.505 -0.151 2.858
0.511 -0.148 2.842
0.503 -0.141 2.786
0.513 -0.142 2.827
0.512 -0.136 2.816
-0.268 -0.253 3.147
-0.314 -0.261 2.943
-0.293 -0.255 2.961
-0.274 -0.254 3.024
-0.311 -0.259 2.854
-0.264 -0.259 3.055
-0.264 -0.255 3.054
-0.278 -0.249 2.988
-0.260 -0.251 3.060
-0.278 -0.257 2.973
-0.272 -0.257 2.977
-0.301 -0.261 2.843
-0.301 -0.261 2.843
-0.285 -0.259 2.906
-0.253 -0.233 3.011
-0.253 -0.233 3.011
-0.296 -0.250 2.801
-0.233 -0.227 3.085
-0.230 -0.231 3.093
-0.233 -0.235 3.069
-0.238 -0.220 3.064
-0.278 -0.235 2.869
-0.241 -0.230 3.009
-0.274 -0.240 2.811
-0.232 -0.210 3.026
-0.252 -0.208 2.905
-0.222 -0.206 3.040
-0.223 -0.206 3.029
-0.254 -0.206 2.888
-0.249 -0.208 2.899
-0.217 -0.205 3.034
-0.269 -0.208 2.793
-0.229 -0.202 2.961
-0.259 -0.206 2.802
-0.250 -0.206 2.829
-0.214 -0.204 2.977
-0.230 -0.204 2.899
-0.191 -0.200 3.078
-0.220 -0.201 2.929
-0.196 -0.203 3.029
-0.196 -0.203 3.029
-0.213 -0.202 2.954
-0.197 -0.209 3.016
-0.197 -0.209 3.016
-0.243 -0.203 2.806
-0.219 -0.204 2.913
-0.219 -0.204 2.913
-0.229 -0.203 2.869
-0.224 -0.204 2.883
-0.224 -0.204 2.883
-0.249 -0.007 2.970
-0.202 -0.183 2.985
-0.218 -0.179 2.903
-0.244 0.178 3.140
-0.235 -0.177 2.813
-0.229 -0.181 2.824
-0.232 -0.186 2.788
-0.223 -0.181 2.823
-0.182 -0.180 2.990
-0.220 -0.181 2.805
-0.193 -0.187 2.900
-0.171 -0.178 2.997
-0.195 -0.179 2.873
-0.194 -0.174 2.878
-0.221 0.208 3.122
-0.170 -0.164 2.999
-0.161 -0.167 3.022
-0.156 -0.150 3.065
-0.171 -0.150 2.980
-0.181 -0.147 2.919
-0.183 -0.152 2.900
-0.174 -0.127 2.954
-0.189 -0.162 2.850
-0.186 -0.156 2.864
-0.185 -0.162 2.858
-0.148 -0.169 3.019
-0.194 -0.153 2.815
-0.181 -0.144 2.878
-0.178 -0.154 2.874
-0.207 0.228 3.107
-0.142 -0.157 3.036
-0.142 -0.157 3.036
-0.140 -0.165 3.025
-0.177 -0.158 2.852
-0.175 -0.083 2.926
-0.171 -0.161 2.847
-0.171 -0.161 2.847
-0.164 -0.156 2.864
-0.128 -0.153 3.035
-0.163 -0.161 2.855
-0.124 -0.139 3.040
-0.173 0.218 3.075
-0.145 -0.156 2.861
-0.106 -0.162 3.017
-0.155 -0.157 2.785
-0.137 -0.155 2.859
-0.137 -0.155 2.859
-0.099 -0.163 3.009
-0.099 -0.163 3.009
-0.141 -0.199 2.793
-0.088 -0.164 3.012
-0.140 0.213 3.049
-0.080 -0.165 2.993
-0.107 -0.143 2.865
-0.075 -0.157 2.975
-0.080 -0.140 2.925
-0.069 -0.157 2.980
-0.069 -0.157 2.980
-0.065 -0.164 2.991
-0.063 -0.164 2.999
-0.088 -0.153 2.851
-0.084 -0.157 2.824
-0.079 -0.156 2.840
-0.037 -0.163 3.002
-0.041 -0.164 2.982
-0.039 -0.154 2.967
-0.035 -0.003 3.011
-0.018 -0.154 2.962
-0.025 -0.003 3.010
0.001 -0.166 2.992
-0.017 0.005 3.013
-0.004 -0.137 2.951
0.017 -0.163 2.988
0.011 -0.153 2.956
-0.004 -0.152 2.837
-0.005 -0.156 2.817
0.031 -0.164 2.976
0.032 -0.161 2.966
0.039 -0.136 3.005
0.023 0.005 3.006
0.010 -0.156 2.817
0.026 -0.001 3.001
0.040 -0.155 2.957
0.047 -0.159 2.977
0.056 -0.155 2.991
0.067 -0.162 2.977
0.038 -0.126 2.847
0.077 -0.152 2.995
0.080 -0.162 2.968
0.064 0.007 2.989
0.085 -0.161 2.973
0.088 -0.157 2.979
0.082 -0.151 2.942
0.078 0.000 2.990
0.078 0.000 2.990
0.080 0.009 3.001
0.079 0.006 2.995
0.075 -0.148 2.824
0.105 -0.161 2.962
0.124 -0.161 2.964
0.126 -0.159 2.970
0.104 -0.159 2.799
0.109 -0.158 2.807
0.103 -0.155 2.774
0.137 -0.159 2.954
0.136 -0.157 2.946
0.113 -0.161 2.787
0.117 -0.161 2.802
0.148 -0.150 2.977
0.148 -0.150 2.977
0.108 -0.142 2.753
0.132 -0.141 2.883
0.123 -0.136 2.823
0.147 -0.159 2.943
0.119 -0.159 2.773
0.126 0.186 2.998
0.152 -0.161 2.957
0.156 -0.158 2.971
0.126 -0.166 2.793
0.154 -0.162 2.950
0.127 -0.204 2.745
0.158 -0.160 2.963
0.123 -0.162 2.735
0.150 -0.172 2.792
0.155 -0.161 2.812
0.155 -0.161 2.812
0.152 -0.173 2.786
0.155 -0.171 2.797
0.188 -0.174 2.958
0.164 -0.172 2.820
0.167 -0.163 2.827
0.194 -0.161 2.980
0.194 -0.161 2.980
0.160 -0.164 2.758
0.193 -0.170 2.910
0.181 0.189 3.001
0.182 -0.156 2.831
0.187 -0.149 2.835
0.186 -0.154 2.779
0.192 -0.161 2.819
0.188 -0.155 2.792
0.188 -0.162 2.751
0.188 -0.162 2.751
0.209 0.194 3.004
0.233 -0.164 2.971
0.220 0.056 2.981
0.236 -0.164 2.963
0.217 -0.162 2.788
0.220 -0.163 2.776
0.251 -0.167 2.941
0.251 -0.167 2.941
0.251 -0.165 2.932
0.233 -0.166 2.804
0.233 -0.166 2.804
0.244 -0.164 2.875
0.239 -0.161 2.843
0.229 -0.169 2.778
0.258 -0.171 2.948
0.258 -0.171 2.948
0.230 -0.167 2.769
0.235 -0.168 2.792
0.223 -0.166 2.719
0.245 -0.162 2.844
0.245 -0.162 2.844
0.251 -0.160 2.879
0.230 -0.169 2.742
0.236 -0.170 2.780
0.257 -0.163 2.906
0.241 -0.168 2.798
0.240 -0.168 2.784
0.248 -0.162 2.837
0.267 -0.173 2.944
0.255 -0.163 2.870
0.253 -0.165 2.856
0.247 -0.172 2.808
0.269 -0.173 2.924
0.259 -0.169 2.836
0.276 -0.173 2.923
0.263 -0.168 2.834
0.281 -0.167 2.908
0.268 -0.011 2.853
0.267 -0.169 2.806
0.284 -0.169 2.911
0.258 -0.169 2.747
0.284 0.150 2.992
0.265 -0.177 2.765
0.289 -0.163 2.916
0.291 0.060 2.970
0.279 -0.169 2.822
0.270 -0.168 2.747
0.280 -0.161 2.809
0.295 -0.175 2.869
0.285 -0.166 2.801
0.304 -0.163 2.913
0.303 0.124 2.984
0.291 -0.178 2.765
0.296 -0.166 2.797
0.314 -0.161 2.910
0.301 -0.168 2.789
0.307 -0.166 2.822
0.307 -0.166 2.822
0.327 -0.169 2.925
0.321 -0.158 2.884
0.305 -0.155 2.763
0.311 -0.168 2.796
0.309 -0.169 2.783
0.313 -0.167 2.806
0.331 -0.169 2.914
0.317 -0.167 2.817
0.324 -0.168 2.861
0.328 -0.161 2.878
0.334 0.127 2.981
0.312 -0.174 2.748
0.319 -0.171 2.788
0.323 -0.168 2.807
0.313 -0.170 2.740
0.326 -0.165 2.823
0.342 -0.173 2.917
0.335 -0.171 2.870
0.331 -0.170 2.842
0.348 0.117 2.975
0.329 -0.164 2.797
0.329 -0.181 2.785
0.356 -0.167 2.961
0.353 -0.178 2.943
0.351 -0.174 2.930
0.355 -0.184 2.950
0.337 -0.176 2.828
0.344 -0.172 2.874
0.341 -0.177 2.855
0.343 -0.174 2.867
0.346 -0.177 2.887
0.340 -0.179 2.846
0.325 -0.178 2.741
0.328 -0.178 2.759
0.333 -0.181 2.776
0.336 -0.178 2.790
0.360 -0.187 2.941
0.364 -0.190 2.965
0.341 -0.177 2.819
0.344 -0.174 2.834
0.355 -0.177 2.905
0.354 -0.180 2.893
0.347 -0.179 2.849
0.352 -0.182 2.883
0.350 -0.180 2.870
0.349 -0.179 2.858
0.338 -0.183 2.769
0.341 -0.180 2.786
0.345 -0.182 2.797
0.365 -0.199 2.923
0.369 -0.193 2.947
0.365 -0.200 2.924
0.365 -0.200 2.924
0.370 -0.311 2.941
0.373 -0.201 2.970
0.373 -0.201 2.970
0.337 -0.179 2.733
0.359 -0.200 2.871
0.345 -0.196 2.750
0.359 -0.210 2.804
0.353 -0.203 2.767
0.371 -0.209 2.884
0.346 -0.185 2.723
0.374 -0.210 2.898
0.385 -0.217 2.962
0.385 -0.217 2.962
0.383 -0.210 2.937
0.378 -0.213 2.907
0.383 -0.212 2.927
0.380 -0.191 2.891
0.396 -0.213 2.975
0.359 -0.181 2.730
0.390 -0.191 2.928
0.400 -0.214 2.983
0.389 -0.179 2.906
0.382 -0.173 2.850
0.396 -0.193 2.938
0.401 -0.215 2.965
0.377 -0.174 2.799
0.377 -0.174 2.799
0.387 -0.173 2.870
0.369 -0.173 2.735
0.387 -0.173 2.862
0.395 -0.181 2.908
0.393 -0.177 2.893
0.377 -0.174 2.785
0.376 -0.173 2.766
0.404 -0.215 2.955
0.399 -0.191 2.919
0.392 -0.174 2.873
0.369 -0.175 2.705
0.376 -0.174 2.740
0.374 -0.177 2.724
0.378 -0.176 2.751
0.381 -0.172 2.770
0.398 -0.183 2.878
0.381 -0.171 2.760
0.381 -0.171 2.760
0.382 -0.170 2.748
0.387 -0.170 2.792
0.399 -0.176 2.867
0.402 -0.184 2.883
0.397 -0.169 2.846
0.421 -0.219 3.005
0.416 -0.223 2.963
0.408 -0.194 2.897
0.408 -0.194 2.897
0.383 -0.171 2.717
0.383 -0.171 2.717
0.423 -0.231 2.991
0.418 -0.220 2.951
0.392 -0.171 2.774
0.407 -0.182 2.862
0.424 -0.228 2.977
0.417 -0.212 2.915
0.424 -0.228 2.959
0.403 -0.169 2.794
0.407 -0.172 2.808
0.421 -0.209 2.897
0.421 -0.209 2.897
0.400 -0.171 2.719
0.400 -0.171 2.719
0.434 -0.243 2.964
0.437 -0.241 2.973
0.413 -0.169 2.802
0.413 -0.172 2.784
0.407 -0.173 2.732
0.419 -0.184 2.812
0.445 -0.245 2.961
0.416 -0.175 2.739
0.421 -0.171 2.772
0.434 -0.205 2.841
0.438 -0.210 2.823
0.438 -0.210 2.823
0.426 -0.171 2.730
0.432 -0.183 2.755
0.438 -0.204 2.774
0.448 -0.208 2.833
0.435 -0.174 2.743
0.439 -0.173 2.736
0.442 -0.178 2.729
0.457 -0.220 2.797
0.468 -0.242 2.853
0.471 -0.216 2.774
0.475 -0.231 2.798
0.479 -0.236 2.811
0.489 -0.212 2.796
0.508 -0.229 2.835
0.511 -0.152 2.843
0.512 -0.144 2.827
0.512 -0.137 2.817
-0.299 -0.257 3.064
-0.315 -0.263 2.944
-0.438 0.183 2.756
-0.280 -0.263 2.969
-0.309 -0.264 2.855
-0.277 -0.261 2.973
-0.271 -0.261 2.977
-0.284 -0.264 2.907
-0.298 -0.267 2.844
-0.252 -0.236 3.011
-0.229 -0.232 3.093
-0.230 -0.236 3.085
-0.233 -0.238 3.066
-0.295 -0.251 2.801
-0.232 -0.212 3.027
-0.222 -0.209 3.029
-0.222 -0.209 3.029
-0.250 -0.214 2.906
-0.247 -0.213 2.900
-0.257 -0.212 2.804
-0.212 -0.206 2.955
-0.224 -0.208 2.892
-0.218 -0.208 2.914
-0.218 -0.208 2.914
-0.228 -0.207 2.870
-0.223 -0.209 2.884
-0.223 -0.209 2.884
-0.201 -0.187 2.985
-0.201 -0.187 2.985
-0.231 -0.188 2.815
-0.226 -0.192 2.826
-0.212 -0.185 2.885
-0.218 -0.188 2.806
-0.169 -0.168 3.000
-0.160 -0.170 3.022
-0.183 -0.152 2.900
-0.205 0.221 3.108
-0.149 -0.170 3.019
-0.188 -0.168 2.851
-0.183 -0.167 2.859
-0.141 -0.160 3.036
-0.141 -0.160 3.036
-0.179 -0.149 2.879
-0.177 -0.159 2.875
-0.139 -0.167 3.026
-0.176 -0.164 2.853
-0.170 -0.167 2.848
-0.170 -0.167 2.848
-0.163 -0.161 2.865
-0.161 -0.165 2.856
-0.144 -0.161 2.861
-0.144 -0.161 2.861
-0.106 -0.165 3.018
-0.135 -0.160 2.860
-0.135 -0.160 2.860
-0.088 -0.166 3.013
-0.116 -0.160 2.856
-0.064 -0.166 2.992
-0.062 -0.167 2.999
-0.087 -0.158 2.852
-0.078 -0.161 2.841
-0.037 -0.166 3.002
-0.040 -0.166 2.983
-0.035 -0.006 3.011
-0.017 0.002 3.014
-0.004 -0.161 2.818
0.023 0.002 3.007
0.027 -0.005 3.001
0.047 -0.159 2.977
0.056 -0.156 2.991
0.039 -0.129 2.848
0.085 -0.162 2.973
0.088 -0.159 2.979
0.078 -0.002 2.990
0.078 -0.002 2.990
0.080 0.003 2.996
0.103 -0.157 2.977
0.105 -0.163 2.962
0.126 -0.159 2.970
0.126 -0.159 2.970
0.099 -0.139 2.829
0.130 -0.140 2.984
0.110 -0.160 2.807
0.136 -0.159 2.946
0.148 -0.150 2.977
0.148 -0.150 2.977
0.123 -0.160 2.806
0.152 -0.162 2.958
0.156 -0.158 2.971
0.128 -0.147 2.818
0.154 -0.164 2.950
0.126 -0.165 2.793
0.158 -0.160 2.963
0.121 -0.161 2.735
0.150 -0.175 2.792
0.155 -0.163 2.813
0.184 -0.167 2.967
0.153 -0.175 2.786
0.188 -0.173 2.958
0.164 -0.172 2.819
0.180 0.184 3.002
0.193 -0.170 2.910
0.186 -0.158 2.780
0.193 -0.162 2.819
0.233 -0.163 2.971
0.251 -0.167 2.941
0.251 -0.167 2.941
0.244 -0.164 2.875
0.258 -0.170 2.948
0.235 -0.169 2.793
0.223 -0.167 2.720
0.249 -0.165 2.863
0.245 -0.163 2.844
0.251 -0.161 2.879
0.257 -0.162 2.906
0.266 -0.172 2.944
0.242 -0.170 2.798
0.248 -0.164 2.837
0.241 -0.172 2.785
0.253 -0.167 2.856
0.255 -0.164 2.870
0.247 -0.170 2.808
0.268 -0.171 2.924
0.270 -0.180 2.915
0.259 -0.169 2.836
0.271 -0.171 2.901
0.276 -0.171 2.923
0.281 -0.169 2.909
0.270 -0.037 2.857
0.267 -0.170 2.806
0.278 -0.164 2.879
0.258 -0.168 2.747
0.284 0.147 2.992
0.264 -0.177 2.764
0.279 -0.170 2.822
0.270 -0.171 2.747
0.285 -0.166 2.801
0.303 -0.169 2.859
0.302 -0.166 2.856
0.291 -0.177 2.765
0.297 -0.167 2.797
0.286 -0.179 2.699
0.340 -0.453 2.971
0.301 -0.169 2.790
0.307 -0.167 2.822
0.327 -0.168 2.925
0.320 -0.164 2.874
0.321 -0.158 2.884
0.311 -0.166 2.795
0.309 -0.170 2.783
0.309 -0.170 2.783
0.317 -0.166 2.817
0.323 -0.167 2.860
0.327 -0.160 2.878
0.327 -0.160 2.878
0.328 -0.152 2.885
0.239 0.969 2.541
0.312 -0.177 2.749
0.319 -0.171 2.789
0.317 -0.167 2.769
0.323 -0.168 2.807
0.345 -0.180 2.947
0.326 -0.166 2.823
0.326 -0.166 2.823
0.337 -0.166 2.884
0.335 -0.170 2.869
0.331 -0.165 2.841
0.330 -0.166 2.798
0.329 -0.180 2.785
0.353 -0.174 2.943
0.351 -0.175 2.930
0.344 -0.173 2.874
0.346 -0.173 2.886
0.325 -0.179 2.741
0.328 -0.179 2.759
0.333 -0.177 2.775
0.360 -0.185 2.941
0.349 -0.178 2.858
0.359 0.063 2.974
0.367 -0.190 2.947
0.369 -0.194 2.947
0.338 -0.180 2.734
0.359 -0.196 2.870
0.363 -0.210 2.891
0.371 -0.207 2.884
0.395 -0.209 2.974
0.400 -0.212 2.983
0.395 -0.189 2.937
0.381 -0.172 2.850
0.381 -0.172 2.850
0.400 -0.210 2.964
0.377 -0.174 2.799
0.377 -0.174 2.799
0.387 -0.172 2.861
0.377 -0.178 2.785
0.392 -0.174 2.873
0.369 -0.178 2.706
0.411 -0.219 2.983
0.376 -0.175 2.741
0.374 -0.179 2.724
0.382 -0.173 2.770
0.381 -0.172 2.760
0.381 -0.172 2.760
0.387 -0.168 2.791
0.397 -0.174 2.854
0.396 -0.169 2.846
0.415 -0.220 2.963
0.408 -0.192 2.897
0.408 -0.192 2.897
0.383 -0.173 2.717
0.422 -0.227 2.991
0.417 -0.218 2.951
0.405 -0.171 2.844
0.424 -0.226 2.976
0.416 -0.209 2.915
0.423 -0.226 2.958
0.403 -0.165 2.793
0.421 -0.207 2.897
0.421 -0.207 2.897
0.399 -0.171 2.719
0.399 -0.171 2.719
0.419 -0.302 2.915
0.436 -0.237 2.972
0.413 -0.171 2.802
0.407 -0.173 2.732
0.419 -0.175 2.783
0.445 -0.239 2.960
0.416 -0.174 2.739
0.421 -0.173 2.772
0.426 -0.172 2.730
0.438 -0.209 2.822
0.438 -0.209 2.822
0.447 -0.206 2.833
0.451 -0.208 2.776
0.457 -0.211 2.795
0.468 -0.238 2.852
0.475 -0.229 2.797
0.479 -0.235 2.811
-0.313 -0.269 2.947
-0.257 -0.233 3.161
-0.276 -0.248 3.058
-0.264 -0.107 3.169
-0.309 -0.264 2.855
-0.273 -0.255 2.974
-0.298 -0.265 2.843
-0.303 -0.262 2.825
-0.231 -0.229 3.082
-0.249 0.015 3.153
-0.236 -0.200 3.021
-0.273 -0.145 2.864
-0.249 -0.208 2.897
-0.258 0.178 3.144
-0.258 -0.210 2.802
-0.252 0.157 3.093
-0.214 -0.197 2.950
-0.221 -0.200 2.909
-0.221 -0.200 2.909
-0.226 -0.203 2.889
-0.204 -0.178 2.981
-0.204 -0.178 2.981
-0.227 -0.206 2.869
-0.224 -0.204 2.882
-0.243 -0.204 2.805
-0.176 -0.166 3.075
-0.232 -0.189 2.815
-0.202 -0.088 3.000
-0.202 -0.088 3.000
-0.213 -0.182 2.884
-0.204 0.067 3.087
-0.226 0.235 3.114
-0.226 0.235 3.114
-0.219 0.181 3.093
-0.213 -0.182 2.858
-0.179 -0.175 2.964
-0.219 -0.185 2.804
-0.163 -0.164 3.019
-0.195 -0.181 2.872
-0.195 -0.181 2.872
-0.212 0.244 3.099
-0.212 0.244 3.099
-0.152 -0.157 3.039
-0.184 -0.139 2.914
-0.151 -0.163 3.016
-0.189 -0.164 2.849
-0.143 -0.151 3.032
-0.143 -0.151 3.032
-0.198 0.228 3.080
-0.185 -0.162 2.856
-0.181 -0.144 2.876
-0.139 -0.139 3.038
-0.179 -0.155 2.873
-0.175 0.091 3.055
-0.184 -0.163 2.839
-0.164 -0.005 3.018
-0.177 -0.160 2.851
-0.162 -0.013 3.006
-0.133 -0.165 3.012
-0.164 -0.157 2.863
-0.181 0.246 3.064
-0.171 -0.186 2.817
-0.171 -0.186 2.817
-0.162 -0.161 2.853
-0.143 0.001 3.022
-0.113 -0.139 3.036
-0.163 0.175 3.030
-0.137 0.018 3.032
-0.162 0.158 3.019
-0.163 0.159 3.019
-0.164 0.151 3.007
-0.165 0.224 3.047
-0.138 -0.009 3.000
-0.108 -0.158 3.014
-0.156 0.163 3.024
-0.123 -0.010 3.006
-0.120 0.003 3.019
-0.146 0.168 3.022
-0.142 0.162 3.014
-0.090 -0.157 3.008
-0.145 0.228 3.036
-0.109 -0.005 3.010
-0.108 0.003 3.018
-0.134 0.159 3.006
-0.103 0.009 3.022
-0.081 -0.159 2.989
-0.073 -0.160 2.998
-0.092 -0.002 3.006
-0.114 0.156 2.996
-0.086 0.005 3.014
-0.086 0.005 3.014
-0.069 -0.149 2.969
-0.102 0.164 3.010
-0.094 0.256 3.088
-0.073 0.001 3.013
-0.087 -0.156 2.851
-0.077 -0.004 2.988
-0.053 -0.158 2.982
-0.089 0.159 3.020
-0.039 -0.158 2.998
0.244 -1.142 3.560
-0.071 0.159 2.998
-0.024 -0.161 2.993
-0.045 -0.006 2.992
-0.041 0.000 3.003
-0.038 0.006 3.006
-0.059 0.163 2.995
-0.055 0.176 3.009
-0.055 0.176 3.009
-0.028 0.005 3.005
-0.046 0.165 3.001
-0.042 0.159 2.994
-0.007 0.012 3.006
-0.006 -0.003 2.985
0.009 0.013 3.003
-0.008 0.166 2.996
0.030 -0.161 2.974
0.020 0.013 3.002
0.024 0.006 2.997
0.046 -0.158 2.976
0.050 -0.141 2.992
0.018 -0.156 2.822
0.052 -0.156 2.972
0.036 0.009 2.993
0.055 -0.151 2.989
0.040 0.013 2.996
0.060 -0.135 2.995
0.043 0.004 2.985
0.043 0.001 2.979
0.046 0.011 2.991
0.049 -0.000 2.973
0.070 -0.152 2.987
0.035 0.167 2.993
0.037 0.164 2.986
0.039 -0.125 2.845
0.046 0.161 2.981
0.050 0.165 2.987
0.062 0.006 2.957
0.052 0.173 2.994
0.052 0.173 2.994
0.084 -0.158 2.971
0.087 -0.153 2.977
0.056 0.168 2.990
0.076 0.008 2.986
0.061 0.160 2.984
0.078 0.013 2.991
0.074 -0.149 2.825
0.103 -0.159 2.960
0.095 0.023 2.991
0.095 0.023 2.991
0.080 -0.155 2.819
0.081 -0.163 2.804
0.107 0.023 2.987
0.107 0.023 2.987
0.124 -0.158 2.962
0.125 -0.154 2.968
0.125 -0.154 2.968
0.098 -0.135 2.828
0.117 0.016 2.983
0.132 -0.152 2.972
0.111 0.169 2.983
0.135 -0.158 2.953
0.110 -0.159 2.807
0.117 -0.161 2.802
0.133 -0.147 2.884
0.133 -0.147 2.884
0.137 0.015 2.979
0.149 -0.157 2.961
0.152 -0.157 2.956
0.123 -0.158 2.805
0.155 -0.154 2.969
0.140 -0.000 2.958
0.140 -0.000 2.958
0.154 -0.159 2.947
0.128 -0.147 2.818
0.128 -0.147 2.818
0.157 -0.156 2.961
0.113 -0.148 2.728
0.126 -0.162 2.791
0.126 -0.162 2.791
0.145 0.004 2.962
0.161 -0.146 2.974
0.148 0.000 2.956
0.154 0.010 2.971
0.157 -0.004 2.956
0.150 0.203 2.986
0.142 -0.172 2.779
0.150 -0.163 2.807
0.183 -0.163 2.965
0.155 -0.164 2.813
0.170 0.043 2.979
0.187 -0.169 2.956
0.192 -0.153 2.977
0.165 -0.173 2.820
0.179 -0.008 2.958
0.167 -0.167 2.828
0.167 -0.167 2.828
0.195 -0.145 2.984
0.194 -0.144 2.951
0.185 -0.009 2.964
0.201 -0.158 2.981
0.173 0.227 2.984
0.190 0.018 2.985
0.161 -0.165 2.754
0.195 -0.016 2.983
0.192 -0.166 2.908
0.180 -0.169 2.827
0.183 -0.160 2.832
0.188 -0.153 2.836
0.169 -0.175 2.730
0.200 0.151 2.998
0.200 0.228 3.014
0.186 -0.160 2.782
0.189 -0.158 2.792
0.193 -0.160 2.818
0.204 0.142 2.975
0.208 -0.153 2.867
0.216 0.018 2.973
0.232 -0.159 2.969
0.232 0.085 2.979
0.234 0.204 2.989
0.251 -0.170 2.942
0.259 -0.158 2.969
0.242 -0.167 2.859
0.257 -0.167 2.946
0.259 -0.169 2.958
0.233 -0.167 2.804
0.230 -0.174 2.780
0.263 -0.150 2.971
0.258 -0.168 2.936
0.235 -0.168 2.792
0.261 -0.103 2.963
0.223 -0.171 2.722
0.238 -0.163 2.807
0.248 -0.165 2.863
0.262 -0.086 2.966
0.241 -0.171 2.807
0.241 -0.171 2.807
0.229 -0.171 2.731
0.267 -0.155 2.958
0.265 -0.169 2.943
0.261 -0.160 2.913
0.268 -0.129 2.968
0.244 -0.162 2.809
0.267 -0.096 2.963
0.241 -0.174 2.786
0.256 -0.165 2.870
0.254 -0.168 2.857
0.259 -0.167 2.890
0.268 -0.168 2.922
0.267 0.061 2.971
0.271 -0.178 2.914
0.274 -0.047 2.974
0.277 -0.117 2.971
0.244 -0.178 2.745
0.281 -0.150 2.973
0.260 -0.174 2.839
0.256 -0.174 2.816
0.270 -0.170 2.901
0.282 -0.164 2.964
0.281 -0.021 2.971
0.279 0.041 2.974
0.280 -0.164 2.906
0.280 0.119 2.983
0.274 -0.170 2.854
0.274 -0.170 2.854
0.281 0.163 2.986
0.268 -0.170 2.806
0.294 -0.089 2.960
0.282 -0.112 2.894
0.280 -0.176 2.825
0.298 -0.006 2.962
0.297 -0.185 2.873
0.286 -0.168 2.802
0.304 0.068 2.964
0.303 0.132 2.977
0.303 0.132 2.977
0.307 -0.006 2.961
0.281 -0.171 2.728
0.291 -0.171 2.793
0.303 -0.168 2.859
0.303 -0.168 2.857
0.297 -0.167 2.797
0.302 -0.171 2.817
0.302 -0.170 2.790
0.323 0.130 2.966
0.326 0.171 3.013
0.321 -0.157 2.883
0.327 0.069 2.962
0.327 0.082 2.966
0.329 -0.006 2.959
0.301 -0.179 2.741
0.301 -0.179 2.741
0.311 -0.168 2.797
0.310 -0.172 2.784
0.307 -0.173 2.770
0.324 -0.166 2.860
0.327 -0.159 2.877
0.327 -0.159 2.877
0.330 -0.163 2.891
0.336 0.037 2.961
0.334 0.073 2.958
0.344 -0.174 2.956
0.312 -0.176 2.748
0.320 -0.174 2.790
0.323 -0.170 2.808
0.345 -0.174 2.944
0.347 -0.163 2.963
0.326 -0.166 2.824
0.341 -0.169 2.915
0.335 -0.170 2.869
0.333 -0.179 2.849
0.346 -0.050 2.958
0.344 0.056 2.962
0.354 -0.156 2.960
0.353 -0.174 2.943
0.350 0.092 2.969
0.349 0.126 2.972
0.329 -0.180 2.785
0.351 -0.173 2.929
0.330 -0.163 2.796
0.356 -0.177 2.956
0.348 -0.176 2.902
0.352 -0.051 2.951
0.353 0.030 2.965
0.354 -0.010 2.961
0.326 -0.183 2.743
0.352 0.025 2.954
0.329 -0.182 2.761
0.334 -0.181 2.777
0.362 -0.154 2.963
0.362 -0.154 2.963
0.360 -0.187 2.942
0.358 0.120 2.980
0.345 -0.178 2.836
0.347 -0.177 2.848
0.358 0.098 2.958
0.350 -0.181 2.870
0.348 -0.177 2.857
0.362 -0.027 2.966
0.362 0.027 2.972
0.362 -0.044 2.964
0.365 0.107 2.979
0.365 0.113 2.990
0.338 -0.185 2.737
0.370 0.003 2.977
0.386 -0.166 3.018
0.371 -0.209 2.885
0.383 -0.009 2.985
0.383 -0.009 2.985
0.349 -0.192 2.726
0.389 -0.205 2.989
0.389 -0.166 2.993
0.366 -0.204 2.827
0.372 -0.207 2.862
0.379 -0.176 2.886
0.395 -0.209 2.974
0.398 -0.204 2.979
0.402 -0.208 2.997
0.394 -0.189 2.938
0.400 -0.210 2.965
0.389 -0.173 2.885
0.377 -0.177 2.801
0.377 -0.177 2.801
0.387 -0.173 2.870
0.406 -0.066 3.008
0.392 -0.173 2.891
0.387 -0.174 2.862
0.370 -0.176 2.737
0.379 -0.205 2.768
0.397 -0.183 2.917
0.377 -0.178 2.769
0.414 -0.131 3.023
0.411 -0.218 2.996
0.370 -0.183 2.709
0.408 -0.059 2.990
0.408 -0.219 2.966
0.411 -0.216 2.982
0.375 -0.179 2.724
0.375 -0.179 2.724
0.377 -0.180 2.744
0.382 -0.176 2.762
0.388 -0.171 2.792
0.397 -0.171 2.847
0.423 -0.196 3.023
0.415 -0.218 2.962
0.420 0.059 3.006
0.408 -0.196 2.899
0.402 -0.176 2.855
0.384 -0.178 2.720
0.416 -0.208 2.914
0.416 -0.208 2.914
0.418 -0.227 2.923
0.424 -0.231 2.961
0.405 -0.125 2.812
0.403 -0.168 2.795
0.434 -0.203 3.010
0.425 -0.227 2.940
0.412 -0.182 2.842
0.397 -0.176 2.722
0.400 -0.177 2.745
0.435 -0.222 2.994
0.434 -0.240 2.964
0.420 -0.202 2.860
0.414 -0.176 2.805
0.407 -0.177 2.734
0.447 0.057 3.004
0.417 -0.176 2.740
0.423 -0.179 2.767
0.430 -0.205 2.815
0.427 -0.177 2.733
0.433 -0.183 2.755
0.446 -0.207 2.834
0.440 -0.178 2.739
0.441 -0.184 2.733
0.451 -0.211 2.778
0.469 -0.033 2.904
0.470 0.025 2.906
0.456 -0.215 2.798
0.476 -0.024 2.902
0.481 -0.088 2.898
0.474 -0.234 2.800
0.484 -0.249 2.872
0.479 -0.242 2.815
0.496 -0.120 2.884
0.515 -0.093 2.928
0.504 -0.148 2.819
0.501 -0.193 2.795
-0.248 -0.255 3.175
-0.263 -0.179 3.175
-0.275 -0.250 3.060
-0.249 -0.194 3.167
-0.264 -0.107 3.169
-0.277 -0.259 2.974
-0.301 -0.268 2.830
-0.296 -0.269 2.846
-0.228 -0.232 3.084
-0.249 0.014 3.154
-0.235 -0.203 3.023
0.250 -1.279 3.916
-0.247 -0.210 2.899
-0.238 0.156 3.119
-0.262 -0.225 2.803
-0.262 -0.225 2.803
-0.212 -0.203 2.954
-0.212 -0.203 2.954
-0.241 0.247 3.115
-0.219 -0.205 2.913
-0.219 -0.205 2.913
-0.174 -0.172 3.079
-0.223 -0.208 2.885
-0.225 -0.212 2.873
-0.242 -0.208 2.808
-0.242 -0.208 2.808
-0.182 -0.144 3.036
-0.182 -0.144 3.036
-0.227 0.239 3.111
-0.165 -0.156 3.068
-0.212 -0.184 2.885
-0.229 -0.195 2.820
-0.211 -0.186 2.861
-0.230 -0.190 2.790
-0.215 0.253 3.095
-0.218 -0.188 2.806
-0.152 -0.157 3.039
-0.209 -0.182 2.809
-0.199 0.230 3.079
-0.183 -0.141 2.915
-0.142 -0.154 3.034
-0.142 -0.154 3.034
-0.192 0.247 3.086
-0.189 -0.166 2.851
-0.140 -0.138 3.037
-0.183 0.156 3.052
-0.184 -0.161 2.865
-0.184 -0.161 2.865
-0.184 -0.166 2.858
-0.178 -0.158 2.875
-0.190 0.225 3.051
-0.162 -0.013 3.006
-0.179 -0.156 2.852
-0.128 -0.152 3.033
-0.168 0.124 3.040
-0.168 0.124 3.040
-0.184 -0.157 2.798
-0.173 0.213 3.051
-0.174 0.243 3.052
-0.164 -0.159 2.865
-0.147 -0.008 3.007
-0.143 0.001 3.022
-0.165 0.180 3.026
-0.167 0.228 3.045
-0.113 -0.139 3.036
-0.113 -0.139 3.036
-0.165 0.156 3.004
-0.138 -0.007 2.999
-0.157 0.167 3.022
-0.107 -0.160 3.016
-0.124 -0.009 3.006
-0.148 0.173 3.019
-0.120 0.005 3.018
-0.142 0.218 3.041
-0.144 0.168 3.011
-0.118 0.047 3.023
-0.091 -0.157 3.009
-0.135 0.164 3.003
-0.135 0.164 3.003
-0.108 0.005 3.017
-0.104 0.012 3.020
-0.102 0.187 3.101
-0.097 0.005 3.015
-0.093 0.021 3.022
-0.113 0.180 3.017
-0.109 0.163 2.987
-0.104 0.170 3.006
-0.106 -0.160 2.821
-0.074 0.003 3.012
-0.073 0.024 3.018
-0.073 0.024 3.018
-0.062 -0.157 2.967
-0.076 -0.003 2.987
-0.052 -0.156 2.976
-0.088 -0.163 2.834
-0.090 0.177 3.009
-0.039 -0.136 3.017
-0.037 -0.161 3.000
-0.070 -0.144 2.856
-0.077 0.161 2.985
-0.046 -0.005 2.992
-0.043 0.005 3.000
-0.039 0.008 3.005
-0.061 0.168 2.992
-0.057 0.194 3.010
-0.057 0.182 3.006
-0.049 0.187 3.011
-0.028 0.005 3.005
-0.048 0.172 2.997
-0.038 0.218 2.998
-0.007 0.014 3.005
-0.006 -0.001 2.984
-0.020 0.170 2.994
-0.017 0.183 3.002
0.004 0.024 3.006
0.009 0.013 3.003
-0.010 0.171 2.993
0.030 -0.161 2.974
0.022 0.024 3.003
0.023 0.008 2.995
0.010 -0.158 2.818
0.050 -0.141 2.992
0.055 -0.152 2.990
0.055 -0.152 2.990
0.051 -0.156 2.972
0.039 0.016 2.994
0.060 -0.135 2.995
0.042 0.008 2.983
0.042 0.004 2.978
0.045 0.014 2.989
0.048 0.026 2.997
0.033 0.176 2.988
0.067 -0.159 2.975
0.036 0.169 2.982
0.070 -0.152 2.987
0.041 0.206 2.995
0.041 0.206 2.995
0.042 0.204 2.996
0.043 0.168 2.976
0.061 0.013 2.985
0.048 0.174 2.981
0.050 0.181 2.990
0.050 0.181 2.990
0.061 0.005 2.957
0.053 0.176 2.985
0.087 -0.155 2.978
0.085 -0.158 2.971
0.059 0.165 2.981
0.075 0.011 2.984
0.076 0.020 2.987
0.105 -0.146 2.983
0.094 0.026 2.989
0.094 0.026 2.989
0.098 0.016 2.973
0.098 0.016 2.973
0.080 -0.155 2.820
0.081 -0.164 2.804
0.106 0.027 2.985
0.106 0.027 2.985
0.111 0.035 2.986
0.126 -0.155 2.968
0.116 0.020 2.981
0.108 0.178 2.977
0.135 -0.157 2.952
0.127 0.012 2.975
0.110 -0.160 2.807
0.137 0.017 2.978
0.137 0.017 2.978
0.148 -0.154 2.960
0.256 -0.653 3.288
0.123 0.226 2.980
0.132 -0.141 2.880
0.132 -0.141 2.880
0.139 0.003 2.956
0.139 0.003 2.956
0.152 -0.159 2.956
0.155 -0.154 2.969
0.156 -0.136 2.979
0.114 -0.165 2.742
0.144 0.006 2.960
0.158 -0.157 2.962
0.128 -0.147 2.818
0.162 -0.149 2.976
0.162 -0.149 2.976
0.126 -0.165 2.793
0.126 -0.165 2.793
0.147 0.002 2.955
0.152 -0.055 2.953
0.152 -0.055 2.953
0.163 -0.129 2.979
0.153 0.012 2.970
0.161 -0.154 2.937
0.145 0.243 3.001
0.157 0.018 2.974
0.156 0.001 2.953
0.159 0.035 2.980
0.148 0.214 2.980
0.141 -0.165 2.773
0.151 -0.158 2.820
0.168 0.007 2.964
0.151 -0.168 2.811
0.183 -0.163 2.965
0.178 -0.166 2.931
0.160 -0.150 2.832
0.187 -0.169 2.956
0.179 -0.006 2.957
0.193 -0.138 2.979
0.164 -0.171 2.818
0.168 -0.168 2.829
0.168 -0.168 2.829
0.189 -0.131 2.942
0.175 0.218 2.989
0.201 -0.158 2.981
0.188 0.025 2.981
0.193 -0.009 2.979
0.192 -0.165 2.907
0.199 -0.007 2.989
0.208 -0.160 2.981
0.181 -0.170 2.828
0.183 -0.150 2.841
0.186 0.148 2.953
0.184 -0.163 2.835
0.188 -0.153 2.836
0.199 0.159 2.993
0.197 0.240 3.008
0.175 -0.188 2.740
0.200 0.156 2.967
0.209 0.079 2.977
0.194 -0.162 2.820
0.203 0.222 2.990
0.203 0.222 2.990
0.198 0.169 2.937
0.215 0.021 2.971
0.218 -0.030 2.969
0.219 -0.048 2.968
0.216 0.041 2.972
0.232 -0.160 2.969
0.195 -0.165 2.726
0.227 0.043 2.968
0.255 -0.144 2.971
0.251 -0.168 2.941
0.236 0.216 2.981
0.258 -0.158 2.968
0.257 -0.167 2.946
0.241 -0.164 2.857
0.233 -0.168 2.804
0.233 -0.168 2.804
0.230 -0.173 2.779
0.263 -0.150 2.971
0.260 -0.101 2.961
0.222 -0.167 2.719
0.234 -0.167 2.791
0.249 0.195 2.977
0.237 -0.162 2.806
0.248 -0.164 2.863
0.257 -0.164 2.908
0.246 -0.163 2.846
0.263 -0.085 2.966
0.252 -0.163 2.880
0.265 -0.167 2.942
0.241 -0.170 2.806
0.272 -0.151 2.983
0.259 0.078 2.969
0.256 -0.166 2.871
0.269 -0.078 2.966
0.254 -0.168 2.856
0.267 -0.013 2.965
0.274 -0.172 2.949
0.265 0.069 2.966
0.265 0.072 2.964
0.266 0.102 2.974
0.238 -0.176 2.723
0.239 -0.181 2.727
0.271 0.018 2.971
0.271 0.018 2.971
0.270 -0.173 2.911
0.275 -0.049 2.975
0.281 -0.152 2.975
0.275 -0.024 2.969
0.257 -0.174 2.816
0.259 -0.168 2.834
0.282 -0.032 2.979
0.278 0.049 2.968
0.279 0.126 2.979
0.289 -0.093 2.956
0.268 -0.169 2.805
0.260 -0.176 2.745
0.260 -0.176 2.745
0.286 0.075 2.963
0.293 -0.088 2.959
0.290 0.024 2.965
0.290 0.024 2.965
0.291 -0.007 2.955
0.297 0.000 2.958
0.292 -0.123 2.901
0.305 -0.120 2.957
0.295 -0.171 2.863
0.303 0.075 2.960
0.286 -0.168 2.802
0.303 0.112 2.969
0.280 -0.155 2.731
0.281 -0.177 2.733
0.291 -0.172 2.793
0.303 -0.167 2.856
0.318 0.029 2.962
0.303 -0.168 2.815
0.302 -0.171 2.791
0.321 0.141 2.959
0.325 0.076 2.957
0.328 -0.000 2.955
0.321 -0.155 2.882
0.300 -0.174 2.737
0.300 -0.174 2.737
0.330 0.028 2.960
0.311 -0.166 2.795
0.310 -0.170 2.783
0.307 -0.171 2.769
0.334 -0.169 2.934
0.332 0.179 3.007
0.332 -0.165 2.912
0.327 -0.156 2.876
0.324 -0.165 2.859
0.337 -0.075 2.952
0.337 -0.041 2.955
0.336 0.031 2.965
0.334 0.073 2.958
0.343 -0.174 2.955
0.337 0.119 2.967
0.312 -0.173 2.746
0.320 -0.173 2.789
0.323 -0.169 2.808
0.327 -0.168 2.825
0.266 0.248 2.510
0.341 -0.170 2.916
0.335 -0.170 2.869
0.342 0.100 2.964
0.351 -0.150 2.974
0.343 0.059 2.960
0.346 -0.049 2.957
0.345 -0.025 2.954
